-0.0929085, 0.202656, 0.410156
-0.0878906, 0.202656, 0.42677
-0.0928535, 0.202656, 0.421875
-0.0878906, 0.202656, 0.428482
-0.091402, 0.202656, 0.427734
-0.0878906, 0.203008, 0.427734
-0.0935964, 0.202656, 0.433594
-0.0878906, 0.202656, 0.455403
-0.0903709, 0.202656, 0.457031
-0.0878906, 0.203242, 0.457031
-0.0878906, 0.203433, 0.462891
0, 0.208516, 0.463026
-0.00585938, 0.208516, 0.463648
-0.0117188, 0.208516, 0.463046
-0.0154582, 0.208516, 0.462891
-0.0175781, 0.208516, 0.462814
-0.0175781, 0.208719, 0.462891
-0.0234375, 0.208516, 0.462307
-0.0253363, 0.208516, 0.462891
-0.0234375, 0.210364, 0.462891
-0.0292969, 0.208516, 0.463934
-0.0351562, 0.208516, 0.463011
-0.0410156, 0.208516, 0.464236
-0.0464649, 0.208516, 0.462891
-0.046875, 0.208516, 0.462799
-0.0478348, 0.208516, 0.462891
-0.046875, 0.209847, 0.462891
-0.0527344, 0.208516, 0.463526
-0.0585938, 0.208516, 0.464126
-0.0644531, 0.208516, 0.464574
-0.0703125, 0.208516, 0.46365
-0.0761719, 0.208516, 0.464964
-0.0820312, 0.208516, 0.465606
-0.0878906, 0.208516, 0.465733
0, 0.214375, 0.464521
-0.00585938, 0.214375, 0.463773
-0.0117188, 0.214375, 0.46341
-0.0175781, 0.214375, 0.464658
-0.0234375, 0.214375, 0.464003
-0.0292969, 0.214375, 0.463928
-0.0351562, 0.214375, 0.463513
-0.0410156, 0.214375, 0.463989
-0.046875, 0.214375, 0.463277
-0.0527344, 0.214375, 0.464011
-0.0585938, 0.214375, 0.463491
-0.0644531, 0.214375, 0.464528
-0.0703125, 0.214375, 0.464075
-0.0761719, 0.214375, 0.465664
-0.0820312, 0.214375, 0.463745
-0.0820312, 0.218203, 0.462891
-0.0878906, 0.214375, 0.464718
-0.0878906, 0.218871, 0.462891
0, 0.220234, 0.463386
-0.00585938, 0.220234, 0.463365
-0.00585938, 0.224748, 0.462891
-0.0117188, 0.220234, 0.464678
-0.0175781, 0.220234, 0.464127
-0.0234375, 0.220234, 0.464968
-0.0292969, 0.220234, 0.462925
-0.0351562, 0.220234, 0.464566
-0.0410156, 0.220234, 0.464518
-0.0410156, 0.224486, 0.462891
-0.046875, 0.220234, 0.464464
-0.0527344, 0.220234, 0.463742
-0.0585938, 0.220234, 0.463901
-0.0644531, 0.220234, 0.463796
-0.0703125, 0.220234, 0.464236
-0.0761719, 0.220234, 0.465004
-0.0811713, 0.220234, 0.462891
-0.0820312, 0.220234, 0.462325
-0.0878906, 0.220234, 0.4623
-0.0886159, 0.220234, 0.462891
-0.0878906, 0.221845, 0.462891
0, 0.226094, 0.463421
-0.00467139, 0.226094, 0.462891
0, 0.231811, 0.462891
-0.00585938, 0.226094, 0.462699
-0.00774708, 0.226094, 0.462891
-0.0117188, 0.226094, 0.46316
-0.0175781, 0.226094, 0.464315
-0.0234375, 0.226094, 0.464283
-0.0234375, 0.231838, 0.462891
-0.0292969, 0.226094, 0.464322
-0.0351562, 0.226094, 0.46336
-0.0373934, 0.226094, 0.462891
-0.0410156, 0.226094, 0.462243
-0.0421906, 0.226094, 0.462891
-0.046875, 0.226094, 0.464907
-0.0527344, 0.226094, 0.463871
-0.0527344, 0.229468, 0.462891
-0.0585938, 0.226094, 0.465148
-0.0644531, 0.226094, 0.463912
-0.0703125, 0.226094, 0.464329
-0.0703125, 0.23112, 0.462891
-0.0761719, 0.226094, 0.46429
-0.0805149, 0.226094, 0.462891
-0.0820312, 0.226094, 0.462034
-0.0843895, 0.226094, 0.462891
-0.0820312, 0.230098, 0.462891
-0.0878906, 0.226094, 0.465202
-0.0937399, 0.226094, 0.462891
0, 0.231953, 0.462865
-0.00585938, 0.231953, 0.460495
-0.0104174, 0.231953, 0.462891
-0.0117188, 0.231953, 0.463322
-0.0117188, 0.234333, 0.462891
-0.0175781, 0.231953, 0.463609
-0.0230466, 0.231953, 0.462891
-0.0234375, 0.231953, 0.462792
-0.0235746, 0.231953, 0.462891
-0.0292969, 0.231953, 0.464362
-0.0292969, 0.234919, 0.462891
-0.0351562, 0.231953, 0.464443
-0.0392956, 0.231953, 0.462891
-0.0351562, 0.236064, 0.462891
-0.0410156, 0.231953, 0.462131
-0.0428223, 0.231953, 0.462891
-0.046875, 0.231953, 0.464028
-0.050509, 0.231953, 0.462891
-0.0527344, 0.231953, 0.461886
-0.0562509, 0.231953, 0.462891
-0.0527344, 0.233693, 0.462891
-0.0585938, 0.231953, 0.463592
-0.0644531, 0.231953, 0.464338
-0.0693224, 0.231953, 0.462891
-0.0703125, 0.231953, 0.46239
-0.0719984, 0.231953, 0.462891
-0.0703125, 0.234316, 0.462891
-0.0761719, 0.231953, 0.464033
-0.0820312, 0.231953, 0.463565
-0.0878906, 0.231953, 0.464348
-0.0878906, 0.23654, 0.462891
0, 0.237812, 0.460182
-0.00585938, 0.237812, 0.45934
-0.0117188, 0.237812, 0.460991
-0.0168109, 0.237812, 0.462891
-0.0175781, 0.237812, 0.463007
-0.0181547, 0.237812, 0.462891
-0.0175781, 0.23813, 0.462891
-0.0234375, 0.237812, 0.460272
-0.0292969, 0.237812, 0.460539
-0.0351562, 0.237812, 0.461577
-0.0410156, 0.237812, 0.462532
-0.0416799, 0.237812, 0.462891
-0.0410156, 0.241286, 0.462891
-0.046875, 0.243609, 0.457031
-0.046875, 0.237812, 0.463939
-0.0527344, 0.237812, 0.464359
-0.0585938, 0.237812, 0.463235
-0.0585938, 0.241102, 0.462891
-0.0644531, 0.237812, 0.463767
-0.0644531, 0.242338, 0.462891
-0.0703125, 0.237812, 0.463431
-0.0703125, 0.243355, 0.462891
-0.0761719, 0.237812, 0.462972
-0.0761719, 0.238898, 0.462891
-0.0820312, 0.243179, 0.457031
-0.0820312, 0.237812, 0.463677
-0.0855672, 0.237812, 0.462891
-0.0820312, 0.242368, 0.462891
-0.0878906, 0.242234, 0.445312
-0.0878906, 0.237812, 0.46219
-0.0878906, 0.243395, 0.457031
-0.0892865, 0.237812, 0.462891
0, 0.246075, 0.375
0, 0.247948, 0.380859
0, 0.248061, 0.386719
0, 0.248169, 0.392578
0, 0.248031, 0.398438
0, 0.247875, 0.404297
0, 0.248167, 0.410156
0, 0.248306, 0.416016
0, 0.248244, 0.421875
0, 0.2483, 0.427734
0, 0.248498, 0.433594
0, 0.248335, 0.439453
0, 0.247917, 0.445312
0, 0.246553, 0.451172
0, 0.243672, 0.457305
0, 0.244169, 0.457031
-0.00585938, 0.245599, 0.375
-0.00585938, 0.248459, 0.380859
-0.00585938, 0.248113, 0.386719
-0.00585938, 0.248042, 0.392578
-0.00585938, 0.248224, 0.398438
-0.00585938, 0.248226, 0.404297
-0.00585938, 0.248283, 0.410156
-0.00585938, 0.248341, 0.416016
-0.00585938, 0.248282, 0.421875
-0.00585938, 0.248198, 0.427734
-0.00585938, 0.248608, 0.433594
-0.00585938, 0.24845, 0.439453
-0.00585938, 0.247752, 0.445312
-0.00585938, 0.247866, 0.451172
-0.00585938, 0.243672, 0.459338
-0.00585938, 0.246576, 0.457031
-0.0117188, 0.246804, 0.375
-0.0117188, 0.24829, 0.380859
-0.0117188, 0.248347, 0.386719
-0.0117188, 0.248332, 0.392578
-0.0117188, 0.248631, 0.398438
-0.0117188, 0.248244, 0.404297
-0.0117188, 0.248465, 0.410156
-0.0117188, 0.248521, 0.416016
-0.0117188, 0.24854, 0.421875
-0.0117188, 0.248295, 0.427734
-0.0117188, 0.248676, 0.433594
-0.0117188, 0.248506, 0.439453
-0.0117188, 0.248221, 0.445312
-0.0117188, 0.247668, 0.451172
-0.0117188, 0.243672, 0.458939
-0.0117188, 0.24558, 0.457031
-0.0175781, 0.24678, 0.375
-0.0175781, 0.248471, 0.380859
-0.0175781, 0.24833, 0.386719
-0.0175781, 0.248476, 0.392578
-0.0175781, 0.248435, 0.398438
-0.0175781, 0.248519, 0.404297
-0.0175781, 0.248651, 0.410156
-0.0175781, 0.248459, 0.416016
-0.0175781, 0.248673, 0.421875
-0.0175781, 0.248633, 0.427734
-0.0175781, 0.248593, 0.433594
-0.0175781, 0.248721, 0.439453
-0.0175781, 0.247209, 0.445312
-0.0175781, 0.24801, 0.451172
-0.0175781, 0.243672, 0.458411
-0.0175781, 0.245772, 0.457031
-0.0234375, 0.247448, 0.375
-0.0234375, 0.248524, 0.380859
-0.0234375, 0.248718, 0.386719
-0.0234375, 0.248763, 0.392578
-0.0234375, 0.248622, 0.398438
-0.0234375, 0.248547, 0.404297
-0.0234375, 0.248783, 0.410156
-0.0234375, 0.248389, 0.416016
-0.0234375, 0.248642, 0.421875
-0.0234375, 0.248679, 0.427734
-0.0234375, 0.248816, 0.433594
-0.0234375, 0.248079, 0.439453
-0.0234375, 0.248005, 0.445312
-0.0234375, 0.247362, 0.451172
-0.0234375, 0.243672, 0.458379
-0.0234375, 0.246449, 0.457031
-0.0292969, 0.247596, 0.375
-0.0292969, 0.248807, 0.380859
-0.0292969, 0.249269, 0.386719
-0.0292969, 0.249106, 0.392578
-0.0292969, 0.24868, 0.398438
-0.0292969, 0.248614, 0.404297
-0.0292969, 0.249171, 0.410156
-0.0292969, 0.248876, 0.416016
-0.0292969, 0.248802, 0.421875
-0.0292969, 0.248759, 0.427734
-0.0292969, 0.248914, 0.433594
-0.0292969, 0.24801, 0.439453
-0.0292969, 0.246869, 0.445312
-0.0292969, 0.248445, 0.451172
-0.0292969, 0.243672, 0.4601
-0.0292969, 0.245386, 0.457031
-0.0351562, 0.248272, 0.375
-0.0351562, 0.248971, 0.380859
-0.0351562, 0.249497, 0.386719
-0.0351562, 0.248832, 0.398438
-0.0351562, 0.248935, 0.404297
-0.0351562, 0.248867, 0.410156
-0.0351562, 0.248779, 0.416016
-0.0351562, 0.249005, 0.421875
-0.0351562, 0.249098, 0.427734
-0.0351562, 0.247559, 0.433594
-0.0351562, 0.248662, 0.439453
-0.0351562, 0.248806, 0.445312
-0.0351562, 0.247334, 0.451172
-0.0351562, 0.243672, 0.459226
-0.0351562, 0.247297, 0.457031
-0.0405807, 0.243672, 0.462891
-0.0410156, 0.249444, 0.375
-0.0410156, 0.249307, 0.380859
-0.0410156, 0.249329, 0.386719
-0.0410156, 0.249387, 0.392578
-0.0410156, 0.248979, 0.398438
-0.0410156, 0.249405, 0.404297
-0.0410156, 0.249082, 0.410156
-0.0410156, 0.249057, 0.416016
-0.0410156, 0.249093, 0.421875
-0.0410156, 0.249203, 0.427734
-0.0410156, 0.248486, 0.433594
-0.0410156, 0.248442, 0.439453
-0.0410156, 0.248342, 0.445312
-0.0410156, 0.247331, 0.451172
-0.0466568, 0.243672, 0.457031
-0.0410156, 0.246739, 0.457031
-0.0410156, 0.243672, 0.462988
-0.0410156, 0.244178, 0.462891
-0.046875, 0.249315, 0.375
-0.046875, 0.249466, 0.392578
-0.046875, 0.249374, 0.398438
-0.046875, 0.249129, 0.404297
-0.046875, 0.249281, 0.410156
-0.046875, 0.249349, 0.416016
-0.046875, 0.249126, 0.421875
-0.046875, 0.248679, 0.427734
-0.046875, 0.249489, 0.433594
-0.046875, 0.249521, 0.439453
-0.046875, 0.243672, 0.456809
-0.046875, 0.247576, 0.451172
-0.046875, 0.243672, 0.45729
-0.0470004, 0.243672, 0.457031
-0.046875, 0.243672, 0.463371
-0.046875, 0.245923, 0.462891
-0.0527344, 0.249493, 0.404297
-0.0527344, 0.249291, 0.410156
-0.0527344, 0.249379, 0.416016
-0.0527344, 0.249399, 0.421875
-0.0527344, 0.249407, 0.433594
-0.0527344, 0.248854, 0.439453
-0.0527344, 0.247948, 0.451172
-0.0527344, 0.247688, 0.457031
-0.0527344, 0.243672, 0.463104
-0.0554178, 0.243672, 0.462891
-0.0527344, 0.245346, 0.462891
-0.0585938, 0.249127, 0.375
-0.0585938, 0.249296, 0.421875
-0.0585938, 0.249334, 0.451172
-0.0585938, 0.243672, 0.460645
-0.0585938, 0.247645, 0.457031
-0.0644531, 0.249277, 0.386719
-0.0644531, 0.247568, 0.451172
-0.0644531, 0.243672, 0.461598
-0.0644531, 0.247464, 0.457031
-0.0703125, 0.248587, 0.416016
-0.0703125, 0.249211, 0.439453
-0.0703125, 0.248003, 0.445312
-0.0703125, 0.248426, 0.451172
-0.0703125, 0.243672, 0.462751
-0.0703125, 0.247932, 0.457031
-0.0761719, 0.248041, 0.416016
-0.0761719, 0.249225, 0.427734
-0.0761719, 0.249511, 0.439453
-0.0761719, 0.249242, 0.445312
-0.0761719, 0.246917, 0.451172
-0.0761719, 0.243672, 0.46181
-0.0812024, 0.243672, 0.457031
-0.0820312, 0.249492, 0.375
-0.0820312, 0.24889, 0.410156
-0.0820312, 0.248694, 0.416016
-0.0820312, 0.248085, 0.433594
-0.0820312, 0.248614, 0.439453
-0.0853316, 0.243672, 0.445312
-0.0820312, 0.247156, 0.445312
-0.0820312, 0.243672, 0.455611
-0.0820312, 0.24697, 0.451172
-0.0901548, 0.243672, 0.375
-0.0878906, 0.247435, 0.375
-0.0878906, 0.249331, 0.392578
-0.0878906, 0.249251, 0.398438
-0.0878906, 0.248771, 0.404297
-0.0878906, 0.24898, 0.416016
-0.0878906, 0.246998, 0.421875
-0.0878906, 0.248134, 0.427734
-0.0878906, 0.246346, 0.433594
-0.0878906, 0.243672, 0.443166
-0.0924178, 0.243672, 0.439453
-0.0878906, 0.245333, 0.439453
-0.0878906, 0.243672, 0.447308
-0.0878906, 0.243672, 0.456521
-0.0904394, 0.243672, 0.451172
-0.0878906, 0.245948, 0.451172
-0.0312261, 0.249531, 0.392578
-0.0351562, 0.249531, 0.386946
-0.0351562, 0.249531, 0.395755
-0.0401517, 0.249531, 0.392578
-0.0351562, 0.250336, 0.392578
-0.0435413, 0.249531, 0.380859
-0.0427625, 0.249531, 0.386719
-0.0453002, 0.249531, 0.445312
-0.046875, 0.249531, 0.377682
-0.0502521, 0.249531, 0.375
-0.046875, 0.249822, 0.380859
-0.046875, 0.249531, 0.391793
-0.046875, 0.24999, 0.386719
-0.0480115, 0.249531, 0.392578
-0.0485023, 0.249531, 0.398438
-0.052699, 0.249531, 0.427734
-0.046875, 0.249531, 0.439581
-0.046875, 0.249531, 0.44679
-0.046875, 0.249944, 0.445312
-0.0543649, 0.249531, 0.375
-0.0527344, 0.249708, 0.375
-0.0527344, 0.249992, 0.380859
-0.0527344, 0.250158, 0.386719
-0.0527344, 0.249848, 0.392578
-0.0527344, 0.249531, 0.403821
-0.0527344, 0.249966, 0.398438
-0.0532718, 0.249531, 0.404297
-0.0563981, 0.249531, 0.410156
-0.0558602, 0.249531, 0.416016
-0.0527344, 0.249531, 0.427351
-0.0527344, 0.249531, 0.428005
-0.0527344, 0.249536, 0.427734
-0.0545844, 0.249531, 0.433594
-0.0527344, 0.249531, 0.443415
-0.0564884, 0.249531, 0.439453
-0.0527344, 0.249531, 0.446145
-0.0527344, 0.249888, 0.445312
-0.0585938, 0.249531, 0.377655
-0.0608474, 0.249531, 0.375
-0.0585938, 0.250284, 0.380859
-0.063076, 0.249531, 0.386719
-0.0585938, 0.250594, 0.386719
-0.0585938, 0.250288, 0.392578
-0.0585938, 0.250442, 0.398438
-0.0585938, 0.249898, 0.404297
-0.0585938, 0.249698, 0.410156
-0.0585938, 0.249531, 0.418139
-0.0585938, 0.249671, 0.416016
-0.0585938, 0.249531, 0.425094
-0.0599121, 0.249531, 0.421875
-0.0585938, 0.249741, 0.427734
-0.0585938, 0.249785, 0.433594
-0.0585938, 0.24993, 0.439453
-0.0585938, 0.249531, 0.449093
-0.0585938, 0.249871, 0.445312
-0.0644531, 0.250476, 0.375
-0.0644531, 0.249531, 0.385786
-0.0644531, 0.251163, 0.380859
-0.0644531, 0.249531, 0.38849
-0.0654693, 0.249531, 0.386719
-0.0644531, 0.250367, 0.392578
-0.0644531, 0.250525, 0.398438
-0.0644531, 0.249828, 0.404297
-0.0644531, 0.250539, 0.410156
-0.0665919, 0.249531, 0.416016
-0.0644531, 0.250254, 0.416016
-0.0644531, 0.250295, 0.421875
-0.0644531, 0.250021, 0.427734
-0.0644531, 0.250073, 0.433594
-0.0681189, 0.249531, 0.439453
-0.0644531, 0.250141, 0.439453
-0.0644531, 0.249531, 0.446635
-0.0658425, 0.249531, 0.445312
-0.0644531, 0.250009, 0.445312
-0.0703125, 0.250464, 0.375
-0.0703125, 0.25102, 0.380859
-0.0703125, 0.251079, 0.386719
-0.0703125, 0.250871, 0.392578
-0.0703125, 0.250767, 0.398438
-0.0703125, 0.250645, 0.404297
-0.0703125, 0.249531, 0.412349
-0.0703125, 0.250279, 0.410156
-0.0703125, 0.249531, 0.419438
-0.0703125, 0.250351, 0.421875
-0.074361, 0.249531, 0.427734
-0.0703125, 0.25029, 0.427734
-0.0703125, 0.249531, 0.437875
-0.0703125, 0.250546, 0.433594
-0.075719, 0.249531, 0.457031
-0.0812918, 0.249531, 0.375
-0.0761719, 0.249819, 0.375
-0.0761719, 0.251218, 0.380859
-0.0761719, 0.251554, 0.386719
-0.0761719, 0.251106, 0.392578
-0.0761719, 0.25109, 0.398438
-0.0761719, 0.250031, 0.404297
-0.0761719, 0.249531, 0.411253
-0.0782553, 0.249531, 0.410156
-0.0761719, 0.250074, 0.410156
-0.0761719, 0.249531, 0.421781
-0.0761719, 0.249531, 0.422416
-0.0761719, 0.249573, 0.421875
-0.0761719, 0.249531, 0.431675
-0.0804808, 0.249531, 0.427734
-0.0761719, 0.249531, 0.438825
-0.0766376, 0.249531, 0.433594
-0.0761719, 0.249732, 0.433594
-0.0761719, 0.249531, 0.456261
-0.0761719, 0.249531, 0.457476
-0.0763337, 0.249531, 0.457031
-0.0761719, 0.249625, 0.457031
-0.0820312, 0.249531, 0.375094
-0.0820312, 0.253217, 0.380859
-0.0820312, 0.251312, 0.386719
-0.087414, 0.249531, 0.392578
-0.0820312, 0.251231, 0.392578
-0.087095, 0.249531, 0.398438
-0.0820312, 0.251596, 0.398438
-0.0820312, 0.249531, 0.406205
-0.0839707, 0.249531, 0.404297
-0.0820312, 0.249995, 0.404297
-0.0865618, 0.249531, 0.410156
-0.0820312, 0.249531, 0.421393
-0.0823067, 0.249531, 0.421875
-0.0820312, 0.249603, 0.421875
-0.0820312, 0.249531, 0.428086
-0.0824226, 0.249531, 0.427734
-0.0820312, 0.249672, 0.427734
-0.0878906, 0.249531, 0.37885
-0.0896245, 0.249531, 0.380859
-0.0878906, 0.249968, 0.380859
-0.0878906, 0.249531, 0.392015
-0.0900496, 0.249531, 0.386719
-0.0878906, 0.251077, 0.386719
-0.0878906, 0.249531, 0.408802
-0.0878906, 0.249531, 0.411783
-0.0890298, 0.249531, 0.410156
-0.0878906, 0.24988, 0.410156
-0.0162282, 0.07375, 0.375
-0.015705, 0.07375, 0.392578
-0.0117188, 0.0790195, 0.410156
-0.0175781, 0.07375, 0.375121
-0.0175781, 0.07389601, 0.375
-0.0213397, 0.07375, 0.380859
-0.0175781, 0.0778503, 0.380859
-0.0175781, 0.07375, 0.390283
-0.0203613, 0.07375, 0.386719
-0.0175781, 0.07375, 0.394663
-0.0175781, 0.07561991, 0.392578
-0.0224092, 0.07375, 0.398438
-0.0282572, 0.07375, 0.375
-0.0234375, 0.0769815, 0.392578
-0.0234375, 0.07375, 0.399394
-0.0238783, 0.07375, 0.398438
-0.0234375, 0.07522219, 0.398438
-0.0264478, 0.07375, 0.404297
-0.0234375, 0.0783696, 0.404297
-0.0242611, 0.07375, 0.416016
-0.0292969, 0.07375, 0.375595
-0.0292969, 0.07375, 0.395527
-0.0292969, 0.07768551, 0.392578
-0.0292969, 0.07375, 0.402639
-0.0292969, 0.07375, 0.406775
-0.0292969, 0.0782923, 0.404297
-0.0292969, 0.07375, 0.412189
-0.0313295, 0.07375, 0.410156
-0.0292969, 0.07375, 0.420021
-0.0292969, 0.0777532, 0.433594
-0.0351562, 0.07375, 0.377756
-0.0351562, 0.07715359, 0.380859
-0.0411251, 0.07375, 0.416016
-0.0703125, 0.07795361, 0.410156
-0.0761719, 0.0794802, 0.392578
-0.0761719, 0.07381371, 0.404297
-0.0761719, 0.0738326, 0.410156
-0.0761719, 0.0774014, 0.416016
0, 0.08377901, 0.380859
-0.00585938, 0.07996391, 0.375
-0.010982, 0.07960939, 0.410156
-0.0117188, 0.08165801, 0.375
-0.0134377, 0.07960939, 0.380859
-0.0117188, 0.083287, 0.380859
-0.0117188, 0.07960939, 0.409573
-0.0117188, 0.07960939, 0.410566
-0.0139267, 0.07960939, 0.410156
-0.0175781, 0.07960939, 0.378854
-0.0211829, 0.07960939, 0.375
-0.0175781, 0.07960939, 0.382791
-0.0218216, 0.07960939, 0.386719
-0.018616, 0.07960939, 0.404297
-0.0175781, 0.08467101, 0.416016
-0.0256512, 0.07960939, 0.375
-0.0234375, 0.082105, 0.375
-0.0234375, 0.081976, 0.380859
-0.0234375, 0.07960939, 0.389078
-0.0234375, 0.08256, 0.386719
-0.0234375, 0.07960939, 0.402446
-0.0234375, 0.07960939, 0.405529
-0.0263345, 0.07960939, 0.404297
-0.0234375, 0.081056, 0.404297
-0.0272191, 0.07960939, 0.416016
-0.0279114, 0.07960939, 0.433594
-0.0234375, 0.082936, 0.445312
-0.0292969, 0.07960939, 0.378667
-0.0330646, 0.07960939, 0.380859
-0.0292969, 0.07960939, 0.389246
-0.0292969, 0.0799503, 0.398438
-0.0292969, 0.08131, 0.404297
-0.0292969, 0.07960939, 0.413757
-0.0307126, 0.07960939, 0.410156
-0.0292969, 0.081025, 0.410156
-0.0292969, 0.084335, 0.416016
-0.0292969, 0.07960939, 0.43478
-0.0292969, 0.08451501, 0.439453
-0.0351562, 0.08077601, 0.375
-0.0351562, 0.07960939, 0.381737
-0.0369371, 0.07960939, 0.380859
-0.0686213, 0.07960939, 0.375
-0.0703125, 0.07960939, 0.380383
-0.0705801, 0.07960939, 0.380859
-0.0703125, 0.080689, 0.380859
-0.0723926, 0.07960939, 0.386719
-0.0703125, 0.08283401, 0.386719
-0.0703125, 0.07960939, 0.394483
-0.0757674, 0.07960939, 0.392578
-0.0703125, 0.07960939, 0.403448
-0.0703125, 0.07960939, 0.405547
-0.0711795, 0.07960939, 0.404297
-0.0703125, 0.07960939, 0.412589
-0.0731158, 0.07960939, 0.416016
-0.0703125, 0.07960939, 0.423735
-0.0724949, 0.07960939, 0.421875
-0.0703125, 0.07960939, 0.444395
-0.0703125, 0.07960939, 0.446234
-0.071247, 0.07960939, 0.445312
-0.0703125, 0.084833, 0.445312
-0.0703125, 0.08469699, 0.451172
-0.0761719, 0.08225299, 0.392578
-0.0761719, 0.084117, 0.421875
0, 0.08546901, 0.378262
-0.00280748, 0.08546901, 0.375
0, 0.08546901, 0.384704
-0.00167657, 0.08546901, 0.380859
0, 0.08919699, 0.380859
0, 0.090212, 0.392578
-0.00585938, 0.08546901, 0.377073
-0.0109722, 0.08546901, 0.380859
-0.00585938, 0.090746, 0.380859
-0.0113154, 0.08546901, 0.410156
-0.0129642, 0.08546901, 0.375
-0.0117188, 0.08546901, 0.38156
-0.0117188, 0.086448, 0.380859
-0.0117188, 0.08546901, 0.409867
-0.0117188, 0.08546901, 0.410725
-0.0124864, 0.08546901, 0.410156
-0.0117188, 0.085962, 0.410156
-0.0168609, 0.08546901, 0.416016
-0.0175781, 0.08546901, 0.37767
-0.0175781, 0.08546901, 0.384108
-0.0197654, 0.08546901, 0.380859
-0.0175781, 0.088365, 0.386719
-0.0175781, 0.08546901, 0.415058
-0.0175781, 0.08546901, 0.416379
-0.0184227, 0.08546901, 0.416016
-0.0175781, 0.087882, 0.427734
-0.0209735, 0.08546901, 0.445312
-0.0264026, 0.08546901, 0.380859
-0.0256831, 0.08546901, 0.386719
-0.0234375, 0.087613, 0.386719
-0.0251133, 0.08546901, 0.398438
-0.0234375, 0.089459, 0.398438
-0.026658, 0.08546901, 0.404297
-0.0242829, 0.08546901, 0.410156
-0.0234375, 0.087248, 0.410156
-0.0234375, 0.08851001, 0.416016
-0.0249507, 0.08546901, 0.421875
-0.0246284, 0.08546901, 0.433594
-0.0234375, 0.08546901, 0.443179
-0.0285366, 0.08546901, 0.439453
-0.0234375, 0.08546901, 0.447512
-0.0234375, 0.08758099, 0.445312
-0.0292969, 0.08546901, 0.377752
-0.03134, 0.08546901, 0.375
-0.0292969, 0.087512, 0.375
-0.0292969, 0.08546901, 0.391717
-0.0292969, 0.08546901, 0.392892
-0.0296112, 0.08546901, 0.392578
-0.0292969, 0.085871, 0.392578
-0.0292969, 0.08546901, 0.415747
-0.0292969, 0.08546901, 0.416297
-0.029565, 0.08546901, 0.416016
-0.0292969, 0.086211, 0.416016
-0.0339246, 0.08546901, 0.421875
-0.0351562, 0.08546901, 0.420693
-0.0351562, 0.08546901, 0.423238
-0.0351562, 0.08725101, 0.421875
-0.0552556, 0.08546901, 0.421875
-0.0527344, 0.08799, 0.421875
-0.0527344, 0.08546901, 0.454219
-0.0527344, 0.088636, 0.451172
-0.0688082, 0.08546901, 0.386719
-0.0682033, 0.08546901, 0.427734
-0.0644531, 0.09022801, 0.427734
-0.0703125, 0.08546901, 0.389402
-0.0703125, 0.08546901, 0.397876
-0.0703125, 0.089102, 0.392578
-0.0703125, 0.08546901, 0.415099
-0.0709164, 0.08546901, 0.416016
-0.0703125, 0.08678199, 0.416016
-0.0703125, 0.08546901, 0.424541
-0.0703125, 0.08546901, 0.446076
-0.0703125, 0.08546901, 0.452016
-0.0711736, 0.08546901, 0.451172
-0.0703125, 0.086279, 0.451172
-0.0761719, 0.08546901, 0.392302
-0.0761719, 0.08546901, 0.394588
-0.0763641, 0.08546901, 0.392578
-0.0761719, 0.086097, 0.392578
-0.0761719, 0.08546901, 0.420083
-0.0761719, 0.08546901, 0.423343
-0.077405, 0.08546901, 0.421875
-0.0761719, 0.087598, 0.421875
-0.00566405, 0.091328, 0.375
-0.00395477, 0.091328, 0.380859
0, 0.091328, 0.390873
0, 0.091328, 0.396369
-0.00169058, 0.091328, 0.392578
0, 0.096011, 0.392578
-0.00585938, 0.091328, 0.383377
-0.00663128, 0.091328, 0.380859
-0.00585938, 0.092182, 0.386719
-0.0117188, 0.091328, 0.377682
-0.0145066, 0.091328, 0.375
-0.0117188, 0.095134, 0.375
-0.0138167, 0.091328, 0.380859
-0.0117188, 0.09422199, 0.380859
-0.0156049, 0.091328, 0.386719
-0.0117188, 0.09581, 0.386719
-0.0117188, 0.09635401, 0.392578
-0.0150044, 0.091328, 0.416016
-0.0171664, 0.091328, 0.427734
-0.0175781, 0.091328, 0.377001
-0.0213989, 0.091328, 0.380859
-0.0175781, 0.091328, 0.388382
-0.0206698, 0.091328, 0.398438
-0.0175781, 0.091328, 0.412877
-0.0200969, 0.091328, 0.410156
-0.0175781, 0.091328, 0.418445
-0.0175781, 0.094758, 0.416016
-0.0175781, 0.091328, 0.427268
-0.0175781, 0.091328, 0.428077
-0.0178309, 0.091328, 0.427734
-0.0175781, 0.091876, 0.427734
-0.0250458, 0.091328, 0.375
-0.0234375, 0.091328, 0.383615
-0.0234375, 0.09510501, 0.380859
-0.0234375, 0.091328, 0.390947
-0.0234375, 0.091328, 0.395047
-0.0243226, 0.091328, 0.392578
-0.0234375, 0.093355, 0.392578
-0.0234375, 0.091328, 0.400963
-0.0234375, 0.091328, 0.406585
-0.0246007, 0.091328, 0.404297
-0.0234375, 0.093692, 0.404297
-0.0234375, 0.095705, 0.410156
-0.0234375, 0.091328, 0.419281
-0.0255334, 0.091328, 0.421875
-0.0234375, 0.094676, 0.421875
-0.0234375, 0.095852, 0.427734
-0.027385, 0.091328, 0.445312
-0.0322596, 0.091328, 0.398438
-0.0292969, 0.091328, 0.447195
-0.0292969, 0.093438, 0.445312
-0.0351562, 0.09491201, 0.380859
-0.0351562, 0.091328, 0.395541
-0.0380529, 0.091328, 0.398438
-0.0351562, 0.094225, 0.398438
-0.046875, 0.094853, 0.439453
-0.0629699, 0.091328, 0.398438
-0.0630244, 0.091328, 0.416016
-0.0585938, 0.091328, 0.447872
-0.0629196, 0.091328, 0.445312
-0.0585938, 0.093612, 0.445312
-0.0665131, 0.091328, 0.386719
-0.0644531, 0.093628, 0.386719
-0.0644531, 0.091328, 0.396667
-0.0684753, 0.091328, 0.392578
-0.0644531, 0.095052, 0.392578
-0.0644531, 0.094134, 0.398438
-0.0644531, 0.091328, 0.413082
-0.0665494, 0.091328, 0.410156
-0.0644531, 0.09307, 0.410156
-0.0644531, 0.091328, 0.421146
-0.0644531, 0.091328, 0.422844
-0.0644531, 0.091906, 0.421875
-0.0703125, 0.091328, 0.420862
-0.0703125, 0.091328, 0.42218
-0.0708825, 0.091328, 0.421875
-0.0703125, 0.091722, 0.421875
-0.00479181, 0.097188, 0.375
-0.00566164, 0.097188, 0.380859
-0.00196556, 0.097188, 0.386719
-0.00834191, 0.097188, 0.375
-0.00585938, 0.097304, 0.380859
-0.00585938, 0.097188, 0.390016
-0.00585938, 0.101078, 0.386719
-0.0110373, 0.097188, 0.392578
-0.0117188, 0.097188, 0.376803
-0.0117188, 0.10046, 0.375
-0.0117188, 0.101311, 0.380859
-0.0117188, 0.101077, 0.386719
-0.0117188, 0.097188, 0.393006
-0.0121816, 0.097188, 0.392578
-0.0117188, 0.097519, 0.392578
-0.0175781, 0.097188, 0.377506
-0.0175781, 0.09990101, 0.375
-0.0175781, 0.097188, 0.389097
-0.0175781, 0.100069, 0.386719
-0.0213383, 0.097188, 0.392578
-0.0200937, 0.097188, 0.398438
-0.0191029, 0.097188, 0.404297
-0.0190178, 0.097188, 0.416016
-0.0214501, 0.097188, 0.421875
-0.0210737, 0.097188, 0.427734
-0.0234375, 0.097188, 0.379055
-0.0234375, 0.099272, 0.398438
-0.0234375, 0.097188, 0.408613
-0.0234375, 0.102503, 0.404297
-0.0234375, 0.097188, 0.411046
-0.0241157, 0.097188, 0.410156
-0.0234375, 0.100349, 0.416016
-0.0234375, 0.10273, 0.421875
-0.0234375, 0.097188, 0.429064
-0.0234375, 0.099731, 0.427734
-0.0263624, 0.097188, 0.439453
-0.0292969, 0.101531, 0.410156
-0.0292969, 0.097188, 0.442487
-0.0342728, 0.097188, 0.439453
-0.0292969, 0.100534, 0.439453
-0.0351562, 0.097188, 0.378584
-0.0351562, 0.097188, 0.383135
-0.0374321, 0.097188, 0.380859
-0.0351562, 0.100878, 0.380859
-0.0410156, 0.101921, 0.427734
-0.0493305, 0.097188, 0.439453
-0.0527344, 0.097188, 0.442349
-0.0527344, 0.101628, 0.439453
-0.0615495, 0.097188, 0.380859
-0.0621979, 0.097188, 0.386719
-0.0629781, 0.097188, 0.392578
-0.0621923, 0.097188, 0.404297
-0.0627237, 0.097188, 0.421875
-0.0644531, 0.097188, 0.395795
-0.0644531, 0.102336, 0.392578
-0.0644531, 0.097188, 0.400145
-0.0661244, 0.097188, 0.398438
-0.00540568, 0.103047, 0.375
-0.00585938, 0.103047, 0.375255
-0.00585938, 0.103398, 0.375
-0.0117188, 0.103047, 0.377666
-0.0138742, 0.103047, 0.380859
-0.0117188, 0.106812, 0.380859
-0.0117188, 0.105779, 0.386719
-0.0175781, 0.103047, 0.383362
-0.0175781, 0.105718, 0.380859
-0.0192724, 0.103047, 0.386719
-0.0203939, 0.103047, 0.392578
-0.0175781, 0.107497, 0.392578
-0.0234375, 0.10686, 0.386719
-0.0234375, 0.103047, 0.394888
-0.0261571, 0.103047, 0.398438
-0.0238853, 0.103047, 0.404297
-0.0234375, 0.103899, 0.404297
-0.0234375, 0.103642, 0.410156
-0.0256887, 0.103047, 0.416016
-0.0235393, 0.103047, 0.421875
-0.0234375, 0.103822, 0.421875
-0.0252947, 0.103047, 0.427734
-0.0234375, 0.1079, 0.427734
-0.0241475, 0.103047, 0.433594
-0.0292969, 0.103047, 0.407604
-0.0292969, 0.103047, 0.411672
-0.030813, 0.103047, 0.410156
-0.0292969, 0.107447, 0.410156
-0.0292969, 0.103047, 0.435336
-0.0292969, 0.107225, 0.433594
-0.0398816, 0.103047, 0.427734
-0.0351562, 0.10853, 0.427734
-0.0351562, 0.103047, 0.437582
-0.0362517, 0.103047, 0.433594
-0.0351562, 0.104274, 0.433594
-0.0407578, 0.103047, 0.439453
-0.0410156, 0.108859, 0.386719
-0.0410156, 0.103047, 0.425259
-0.0463137, 0.103047, 0.427734
-0.0410156, 0.105165, 0.427734
-0.0410156, 0.103047, 0.439424
-0.0457819, 0.103047, 0.433594
-0.0410156, 0.103047, 0.439482
-0.04105, 0.103047, 0.439453
-0.0410156, 0.103088, 0.439453
-0.046875, 0.103047, 0.43485
-0.046875, 0.105076, 0.433594
-0.0527344, 0.103047, 0.43743
-0.0559724, 0.103047, 0.433594
-0.0527344, 0.105587, 0.433594
-0.0623991, 0.103047, 0.375
-0.061264, 0.103047, 0.380859
-0.0616093, 0.103047, 0.404297
-0.0609832, 0.103047, 0.416016
-0.0585938, 0.107198, 0.416016
-0.0585938, 0.103047, 0.422171
-0.0607462, 0.103047, 0.421875
-0.0585938, 0.103499, 0.421875
-0.0585938, 0.108286, 0.427734
-0.0644531, 0.103047, 0.392255
-0.0648583, 0.103047, 0.392578
-0.0644531, 0.103369, 0.392578
-0.0644531, 0.103047, 0.400156
-0.0660144, 0.103047, 0.398438
-0.0644531, 0.106311, 0.398438
-0.00921011, 0.108906, 0.375
-0.0111693, 0.108906, 0.380859
-0.0108133, 0.108906, 0.386719
-0.0129684, 0.108906, 0.380859
-0.0117188, 0.108906, 0.388383
-0.0148129, 0.108906, 0.386719
-0.0117188, 0.109876, 0.386719
-0.0156872, 0.108906, 0.392578
-0.0117188, 0.110897, 0.398438
-0.0175781, 0.108906, 0.37502
-0.0191537, 0.108906, 0.380859
-0.0175781, 0.110898, 0.380859
-0.0175781, 0.108906, 0.389219
-0.0175781, 0.110464, 0.386719
-0.0175781, 0.108906, 0.393907
-0.0195026, 0.108906, 0.404297
-0.0175781, 0.111878, 0.404297
-0.0223213, 0.108906, 0.410156
-0.0175781, 0.113019, 0.410156
-0.0229801, 0.108906, 0.421875
-0.0175781, 0.114614, 0.421875
-0.0228407, 0.108906, 0.427734
-0.0234375, 0.108906, 0.384652
-0.0234375, 0.108906, 0.390116
-0.0252029, 0.108906, 0.386719
-0.0234375, 0.110774, 0.386719
-0.0234375, 0.108906, 0.39508
-0.0234375, 0.108906, 0.402281
-0.0234375, 0.111831, 0.398438
-0.0234375, 0.108906, 0.411162
-0.0234375, 0.108906, 0.421025
-0.0272098, 0.108906, 0.416016
-0.0234375, 0.113053, 0.416016
-0.0234375, 0.109796, 0.421875
-0.0234375, 0.108906, 0.429403
-0.0234375, 0.109451, 0.427734
-0.0292969, 0.108906, 0.431505
-0.033682, 0.108906, 0.427734
-0.0351562, 0.108906, 0.427084
-0.0359729, 0.108906, 0.427734
-0.0351562, 0.114235, 0.433594
-0.0410156, 0.108906, 0.38668
-0.0410156, 0.108906, 0.386757
-0.0410572, 0.108906, 0.386719
-0.0410156, 0.109448, 0.386719
-0.0410156, 0.108906, 0.429605
-0.046875, 0.108906, 0.429263
-0.0480074, 0.108906, 0.427734
-0.0556088, 0.108906, 0.386719
-0.0527344, 0.108906, 0.424753
-0.0556121, 0.108906, 0.421875
-0.0576751, 0.108906, 0.427734
-0.0585938, 0.108906, 0.382589
-0.0602053, 0.108906, 0.380859
-0.0599901, 0.108906, 0.398438
-0.0585938, 0.109651, 0.398438
-0.0585938, 0.108906, 0.408716
-0.0619227, 0.108906, 0.404297
-0.0585938, 0.109807, 0.410156
-0.0585938, 0.108906, 0.426816
-0.0585938, 0.108906, 0.428498
-0.0595549, 0.108906, 0.427734
-0.0585938, 0.109606, 0.427734
-0.0114087, 0.114766, 0.380859
-0.0103225, 0.114766, 0.398438
-0.0117188, 0.114766, 0.381039
-0.0156522, 0.114766, 0.386719
-0.0117188, 0.11935, 0.386719
-0.0117188, 0.114766, 0.396626
-0.0152096, 0.114766, 0.392578
-0.0117188, 0.114766, 0.402428
-0.014537, 0.114766, 0.398438
-0.0117188, 0.116464, 0.398438
-0.0145113, 0.114766, 0.404297
-0.0117188, 0.120288, 0.404297
-0.0166944, 0.114766, 0.410156
-0.0171551, 0.114766, 0.421875
-0.0175781, 0.118976, 0.380859
-0.0175781, 0.119931, 0.386719
-0.0175781, 0.114766, 0.396001
-0.0175781, 0.114766, 0.402405
-0.0195856, 0.114766, 0.398438
-0.0175781, 0.116803, 0.398438
-0.0175781, 0.114766, 0.41366
-0.0175781, 0.116684, 0.410156
-0.0175781, 0.114766, 0.420851
-0.0197943, 0.114766, 0.416016
-0.0175781, 0.114766, 0.422093
-0.0178895, 0.114766, 0.421875
-0.0175781, 0.117413, 0.421875
-0.0234375, 0.116567, 0.404297
-0.0234375, 0.114766, 0.417794
-0.0234375, 0.116881, 0.416016
-0.0271092, 0.114766, 0.421875
-0.0283954, 0.114766, 0.427734
-0.0321242, 0.114766, 0.416016
-0.0292969, 0.117749, 0.416016
-0.0292969, 0.114766, 0.429051
-0.0310381, 0.114766, 0.427734
-0.0292969, 0.118394, 0.427734
-0.0342381, 0.114766, 0.433594
-0.0351562, 0.114766, 0.418352
-0.0379969, 0.114766, 0.416016
-0.0351562, 0.114766, 0.426019
-0.0402408, 0.114766, 0.421875
-0.0351562, 0.114766, 0.432344
-0.0375433, 0.114766, 0.427734
-0.0351562, 0.116734, 0.427734
-0.0351562, 0.114766, 0.43411
-0.0356707, 0.114766, 0.433594
-0.0351562, 0.116151, 0.433594
-0.0410156, 0.114766, 0.420833
-0.0410156, 0.114766, 0.423059
-0.041606, 0.114766, 0.421875
-0.0410156, 0.114766, 0.42973
-0.0564297, 0.114766, 0.386719
-0.0527344, 0.118146, 0.392578
-0.0527344, 0.117297, 0.427734
-0.0596324, 0.114766, 0.375
-0.0585938, 0.115409, 0.375
-0.0585938, 0.114766, 0.384203
-0.0622274, 0.114766, 0.380859
-0.0585938, 0.114766, 0.390262
-0.0585938, 0.119155, 0.386719
-0.0585938, 0.114766, 0.395274
-0.0608176, 0.114766, 0.392578
-0.0585938, 0.119307, 0.392578
-0.0585938, 0.114766, 0.401004
-0.0585938, 0.119397, 0.398438
-0.0623852, 0.114766, 0.404297
-0.0585938, 0.118642, 0.404297
-0.0585938, 0.114766, 0.413323
-0.062194, 0.114766, 0.410156
-0.0585938, 0.119285, 0.410156
-0.00982858, 0.120625, 0.380859
-0.0102256, 0.120625, 0.386719
-0.0116663, 0.120625, 0.404297
-0.0117188, 0.120625, 0.378872
-0.0144578, 0.120625, 0.380859
-0.0117188, 0.12198, 0.380859
-0.0117188, 0.120625, 0.388772
-0.0164572, 0.120625, 0.386719
-0.0117188, 0.124147, 0.386719
-0.0143656, 0.120625, 0.392578
-0.0117188, 0.120625, 0.404229
-0.014927, 0.120625, 0.398438
-0.0117188, 0.120625, 0.404383
-0.0117188, 0.120686, 0.404297
-0.0175781, 0.121165, 0.375
-0.0186399, 0.120625, 0.380859
-0.0175781, 0.120625, 0.387276
-0.0175781, 0.121321, 0.386719
-0.0175781, 0.120625, 0.406222
-0.0190519, 0.120625, 0.404297
-0.0175781, 0.123003, 0.404297
-0.0198356, 0.120625, 0.410156
-0.0175781, 0.121992, 0.421875
-0.0175781, 0.126349, 0.427734
-0.0234375, 0.120625, 0.401922
-0.0234375, 0.120625, 0.407093
-0.0252964, 0.120625, 0.404297
-0.0234375, 0.123531, 0.404297
-0.0234375, 0.120625, 0.413825
-0.0285429, 0.120625, 0.421875
-0.0234375, 0.124765, 0.421875
-0.0234375, 0.125307, 0.427734
-0.0292969, 0.120625, 0.413574
-0.0292969, 0.120625, 0.421171
-0.0292969, 0.123114, 0.416016
-0.0292969, 0.120625, 0.4244
-0.0292969, 0.122696, 0.421875
-0.0299778, 0.120625, 0.427734
-0.0351562, 0.120625, 0.414932
-0.0351562, 0.120625, 0.417966
-0.0362396, 0.120625, 0.416016
-0.0351562, 0.121708, 0.416016
-0.0351562, 0.120625, 0.431796
-0.0351562, 0.126361, 0.433594
-0.0410156, 0.120625, 0.432658
-0.050255, 0.120625, 0.392578
-0.046875, 0.125543, 0.433594
-0.0558027, 0.120625, 0.375
-0.0527344, 0.120625, 0.395203
-0.0527344, 0.123104, 0.392578
-0.0569384, 0.120625, 0.404297
-0.0527344, 0.120625, 0.430901
-0.055174, 0.120625, 0.427734
-0.0527344, 0.124017, 0.427734
-0.0585938, 0.120625, 0.378374
-0.0633066, 0.120625, 0.380859
-0.0585938, 0.123339, 0.380859
-0.0585938, 0.120625, 0.39046
-0.0597519, 0.120625, 0.386719
-0.0585938, 0.120625, 0.395406
-0.0585938, 0.120625, 0.400124
-0.0594598, 0.120625, 0.398438
-0.0585938, 0.124615, 0.410156
-0.0143414, 0.126484, 0.375
-0.0117188, 0.131253, 0.375
-0.0133261, 0.126484, 0.386719
-0.0117188, 0.129072, 0.386719
-0.0136233, 0.126484, 0.392578
-0.0117188, 0.129456, 0.392578
-0.0139817, 0.126484, 0.398438
-0.0166528, 0.126484, 0.421875
-0.0173806, 0.126484, 0.427734
-0.0175781, 0.126484, 0.380426
-0.0175781, 0.126484, 0.382026
-0.0175781, 0.128205, 0.380859
-0.0175781, 0.126484, 0.402656
-0.0194895, 0.126484, 0.404297
-0.0188939, 0.126484, 0.410156
-0.0175781, 0.127831, 0.410156
-0.0175781, 0.126484, 0.421254
-0.0175781, 0.127088, 0.421875
-0.0175781, 0.126484, 0.427879
-0.0175781, 0.126738, 0.427734
-0.0234375, 0.126484, 0.412977
-0.0234375, 0.132017, 0.410156
-0.0234375, 0.126484, 0.420521
-0.0262835, 0.126484, 0.416016
-0.0234375, 0.131466, 0.416016
-0.0269872, 0.126484, 0.421875
-0.0234375, 0.128291, 0.421875
-0.0234375, 0.126484, 0.429499
-0.024274, 0.126484, 0.427734
-0.0292969, 0.126484, 0.420962
-0.0301685, 0.126484, 0.421875
-0.0292969, 0.130305, 0.421875
-0.0314476, 0.126484, 0.427734
-0.0292969, 0.129765, 0.427734
-0.035103, 0.126484, 0.433594
-0.0351562, 0.131108, 0.427734
-0.0351562, 0.126484, 0.43367
-0.0352809, 0.126484, 0.433594
-0.0351562, 0.126701, 0.433594
-0.0410156, 0.126484, 0.432375
-0.0451394, 0.126484, 0.433594
-0.0410156, 0.130191, 0.433594
-0.046875, 0.126484, 0.434345
-0.0476517, 0.126484, 0.433594
-0.0562671, 0.126484, 0.375
-0.0556964, 0.126484, 0.380859
-0.0565308, 0.126484, 0.392578
-0.0585938, 0.126484, 0.385086
-0.0585938, 0.126484, 0.388804
-0.0610075, 0.126484, 0.386719
-0.0585938, 0.128999, 0.386719
-0.0585938, 0.126484, 0.397728
-0.0585938, 0.126484, 0.399301
-0.0592959, 0.126484, 0.398438
-0.0585938, 0.13017, 0.398438
-0.0585938, 0.126484, 0.409032
-0.0585938, 0.130536, 0.404297
-0.0585938, 0.126484, 0.411215
-0.0597917, 0.126484, 0.410156
-0.0585938, 0.127356, 0.410156
-0.0585938, 0.13192, 0.416016
-0.0106344, 0.132344, 0.375
-0.0106354, 0.132344, 0.386719
-0.00896176, 0.132344, 0.392578
-0.0117188, 0.132344, 0.376181
-0.0117188, 0.133419, 0.375
-0.0117188, 0.132344, 0.385706
-0.0163635, 0.132344, 0.380859
-0.0117188, 0.133172, 0.386719
-0.0117188, 0.132344, 0.395586
-0.0117188, 0.138185, 0.392578
-0.0155238, 0.132344, 0.398438
-0.0117188, 0.136415, 0.398438
-0.0142157, 0.132344, 0.410156
-0.0175781, 0.132344, 0.402561
-0.0175781, 0.132344, 0.405271
-0.018368, 0.132344, 0.404297
-0.0175781, 0.135575, 0.404297
-0.0175781, 0.132344, 0.415796
-0.023101, 0.132344, 0.410156
-0.0175781, 0.13549, 0.410156
-0.0185502, 0.132344, 0.416016
-0.0175781, 0.133785, 0.416016
-0.0221965, 0.132344, 0.427734
-0.0234375, 0.132344, 0.40989
-0.0234375, 0.132344, 0.411548
-0.0236248, 0.132344, 0.410156
-0.0234375, 0.132613, 0.410156
-0.0234375, 0.132344, 0.41723
-0.0234375, 0.132344, 0.426668
-0.0285113, 0.132344, 0.421875
-0.0234375, 0.132344, 0.428296
-0.0234375, 0.134196, 0.427734
-0.0292969, 0.133551, 0.421875
-0.0292969, 0.132344, 0.430447
-0.0329913, 0.132344, 0.427734
-0.0351562, 0.132344, 0.426111
-0.0378734, 0.132344, 0.427734
-0.0351562, 0.134328, 0.427734
-0.0380471, 0.132344, 0.433594
-0.0410156, 0.132344, 0.434615
-0.0507842, 0.132344, 0.416016
-0.0514309, 0.132344, 0.421875
-0.0501638, 0.132344, 0.427734
-0.046875, 0.132344, 0.436947
-0.0492042, 0.132344, 0.433594
-0.0563746, 0.132344, 0.375
-0.0562016, 0.132344, 0.380859
-0.0560689, 0.132344, 0.386719
-0.0527344, 0.13667, 0.386719
-0.0537248, 0.132344, 0.392578
-0.0583459, 0.132344, 0.398438
-0.0527344, 0.132344, 0.413511
-0.0558496, 0.132344, 0.410156
-0.0581956, 0.132344, 0.416016
-0.0527344, 0.133523, 0.421875
-0.0527344, 0.135887, 0.427734
-0.0585938, 0.132344, 0.399527
-0.0585938, 0.132344, 0.405746
-0.0598709, 0.132344, 0.404297
-0.0585938, 0.13399, 0.404297
-0.0585938, 0.132344, 0.415675
-0.0585938, 0.132344, 0.41627
-0.0589322, 0.132344, 0.416016
-0.0585938, 0.133477, 0.416016
-0.010021, 0.138203, 0.398438
-0.0117188, 0.14219, 0.375
-0.0117188, 0.138203, 0.392622
-0.0117331, 0.138203, 0.392578
-0.0117188, 0.138203, 0.399882
-0.0117188, 0.140497, 0.398438
-0.0168689, 0.138203, 0.404297
-0.016296, 0.138203, 0.416016
-0.0175781, 0.138203, 0.405224
-0.0175781, 0.138203, 0.415304
-0.0199535, 0.138203, 0.410156
-0.0175781, 0.138203, 0.417542
-0.0175781, 0.140701, 0.416016
-0.0175781, 0.143556, 0.427734
-0.0234375, 0.138203, 0.418952
-0.0234375, 0.14405, 0.421875
-0.0247088, 0.138203, 0.427734
-0.0234375, 0.140332, 0.427734
-0.0234375, 0.141961, 0.433594
-0.0292969, 0.138203, 0.420531
-0.0292969, 0.138203, 0.423373
-0.0312849, 0.138203, 0.421875
-0.0292969, 0.143874, 0.421875
-0.0292969, 0.138203, 0.430272
-0.0351562, 0.138203, 0.432942
-0.0362632, 0.138203, 0.433594
-0.0351562, 0.139479, 0.433594
-0.0410156, 0.138203, 0.437213
-0.0410156, 0.143391, 0.433594
-0.0410156, 0.143744, 0.439453
-0.046875, 0.138203, 0.435973
-0.0498037, 0.138203, 0.433594
-0.046875, 0.142414, 0.433594
-0.0570936, 0.138203, 0.375
-0.0527344, 0.138203, 0.385374
-0.0562566, 0.138203, 0.380859
-0.0527344, 0.142526, 0.380859
-0.0527344, 0.138203, 0.388797
-0.0527344, 0.139889, 0.386719
-0.0552732, 0.138203, 0.392578
-0.0527344, 0.143471, 0.392578
-0.0541006, 0.138203, 0.398438
-0.0553793, 0.138203, 0.404297
-0.0541048, 0.138203, 0.410156
-0.0550394, 0.138203, 0.421875
-0.0527344, 0.138203, 0.430396
-0.0547807, 0.138203, 0.427734
-0.0585938, 0.14071, 0.375
-0.00933949, 0.144062, 0.375
-0.00585938, 0.149413, 0.392578
-0.0117188, 0.144062, 0.376624
-0.0132051, 0.144062, 0.375
-0.0117188, 0.147752, 0.375
-0.0145869, 0.144062, 0.380859
-0.013216, 0.144062, 0.398438
-0.0154303, 0.144062, 0.404297
-0.015895, 0.144062, 0.427734
-0.0117188, 0.144884, 0.427734
-0.0175781, 0.144062, 0.378045
-0.0175781, 0.144062, 0.406672
-0.021597, 0.144062, 0.410156
-0.0180777, 0.144062, 0.416016
-0.0175781, 0.146311, 0.416016
-0.0175781, 0.144062, 0.425735
-0.0233612, 0.144062, 0.421875
-0.0175781, 0.144062, 0.430481
-0.0180681, 0.144062, 0.433594
-0.0234375, 0.147133, 0.380859
-0.0234375, 0.144062, 0.435177
-0.0259719, 0.144062, 0.433594
-0.0292969, 0.144062, 0.431498
-0.0326615, 0.144062, 0.433594
-0.0292969, 0.147999, 0.433594
-0.0351562, 0.147097, 0.421875
-0.0351562, 0.149731, 0.427734
-0.0351562, 0.144062, 0.435337
-0.0402307, 0.144062, 0.433594
-0.0351562, 0.147984, 0.433594
-0.0409118, 0.144062, 0.439453
-0.0410156, 0.144062, 0.433225
-0.0410156, 0.144062, 0.438188
-0.0410156, 0.144391, 0.433594
-0.0410156, 0.144062, 0.439605
-0.0412184, 0.144062, 0.439453
-0.0410156, 0.144238, 0.439453
-0.0516651, 0.144062, 0.380859
-0.0524927, 0.144062, 0.392578
-0.046875, 0.144062, 0.431554
-0.046875, 0.145805, 0.433594
-0.0527344, 0.144062, 0.376834
-0.0527344, 0.145306, 0.375
-0.0527344, 0.144062, 0.382766
-0.0527344, 0.144062, 0.392132
-0.0567057, 0.144062, 0.386719
-0.0527344, 0.144062, 0.392984
-0.0553402, 0.144062, 0.398438
-0.0572265, 0.144062, 0.404297
-0.055099, 0.144062, 0.410156
-0.0557362, 0.144062, 0.416016
-0.0538878, 0.144062, 0.421875
-0.0527344, 0.144062, 0.433117
-0.055124, 0.144062, 0.427734
-0.0527344, 0.147151, 0.433594
-0.0585938, 0.144062, 0.376705
-0.0600487, 0.144062, 0.375
-0.0585938, 0.148367, 0.375
-0.00540294, 0.149922, 0.392578
-0.00585938, 0.149922, 0.391996
-0.00585938, 0.149922, 0.393636
-0.00614391, 0.149922, 0.392578
-0.00585938, 0.150301, 0.392578
-0.00585938, 0.154224, 0.398438
-0.0087897, 0.149922, 0.427734
-0.0147231, 0.149922, 0.398438
-0.0144778, 0.149922, 0.404297
-0.0163224, 0.149922, 0.416016
-0.0117188, 0.155444, 0.416016
-0.0117188, 0.149922, 0.424212
-0.0117188, 0.149922, 0.430107
-0.0117188, 0.154405, 0.427734
-0.0175781, 0.149922, 0.419847
-0.0175781, 0.149922, 0.425842
-0.0181241, 0.149922, 0.421875
-0.0175781, 0.149922, 0.428675
-0.0208282, 0.149922, 0.433594
-0.0234375, 0.149922, 0.38116
-0.0234375, 0.151298, 0.392578
-0.0234375, 0.15475, 0.421875
-0.0234375, 0.149922, 0.434869
-0.02999, 0.149922, 0.421875
-0.0342504, 0.149922, 0.427734
-0.0292969, 0.151386, 0.427734
-0.0292969, 0.149922, 0.435312
-0.0326444, 0.149922, 0.433594
-0.0292969, 0.151272, 0.433594
-0.0351562, 0.149922, 0.420107
-0.0373062, 0.149922, 0.421875
-0.0351562, 0.152119, 0.421875
-0.0353286, 0.149922, 0.427734
-0.0351562, 0.152577, 0.427734
-0.0360901, 0.149922, 0.433594
-0.0410156, 0.149922, 0.437423
-0.0511286, 0.149922, 0.375
-0.0516889, 0.149922, 0.392578
-0.046875, 0.149922, 0.437162
-0.0527344, 0.152243, 0.375
-0.0527344, 0.149922, 0.384644
-0.0527344, 0.152964, 0.380859
-0.0527344, 0.149922, 0.38871
-0.0536752, 0.149922, 0.386719
-0.0527344, 0.149922, 0.39421
-0.0527344, 0.152155, 0.392578
-0.0574465, 0.149922, 0.398438
-0.055806, 0.149922, 0.404297
-0.0558666, 0.149922, 0.410156
-0.0527344, 0.155492, 0.410156
-0.0547251, 0.149922, 0.416016
-0.0539786, 0.149922, 0.421875
-0.0527344, 0.155633, 0.421875
-0.0547347, 0.149922, 0.427734
-0.0527344, 0.149922, 0.435052
-0.0538336, 0.149922, 0.433594
-0.0585938, 0.154577, 0.404297
-0.00506806, 0.155781, 0.398438
0, 0.155781, 0.466339
-0.00585938, 0.155781, 0.397839
-0.00585938, 0.155781, 0.399002
-0.00634377, 0.155781, 0.398438
-0.00585938, 0.156385, 0.398438
-0.0111884, 0.155781, 0.416016
-0.00585938, 0.155781, 0.468046
-0.0145883, 0.155781, 0.404297
-0.0117188, 0.155781, 0.415436
-0.0117188, 0.155781, 0.416596
-0.013014, 0.155781, 0.427734
-0.0117188, 0.159577, 0.427734
-0.0117188, 0.155781, 0.468368
-0.0175781, 0.155781, 0.424159
-0.0175781, 0.160379, 0.421875
-0.0175781, 0.155781, 0.431927
-0.0227542, 0.155781, 0.433594
-0.0175781, 0.156829, 0.433594
-0.0234375, 0.155781, 0.391558
-0.0234375, 0.155781, 0.393518
-0.0260029, 0.155781, 0.392578
-0.0234375, 0.155781, 0.42353
-0.0244559, 0.155781, 0.421875
-0.0267808, 0.155781, 0.427734
-0.0234375, 0.155781, 0.43378
-0.0236219, 0.155781, 0.433594
-0.0292969, 0.157523, 0.392578
-0.0292969, 0.155781, 0.426054
-0.0292969, 0.160607, 0.421875
-0.0347552, 0.155781, 0.427734
-0.0292969, 0.157323, 0.427734
-0.0292969, 0.160685, 0.433594
-0.0351562, 0.155781, 0.428078
-0.0374342, 0.155781, 0.433594
-0.0351562, 0.155781, 0.468653
-0.0410156, 0.160851, 0.427734
-0.0410156, 0.155781, 0.436597
-0.0410156, 0.155781, 0.468173
-0.046875, 0.159512, 0.386719
-0.0526998, 0.155781, 0.421875
-0.046875, 0.155781, 0.439386
-0.046875, 0.156234, 0.439453
-0.046875, 0.155781, 0.46818
-0.0553808, 0.155781, 0.375
-0.0527344, 0.158045, 0.375
-0.0540439, 0.155781, 0.380859
-0.0532948, 0.155781, 0.386719
-0.0551452, 0.155781, 0.392578
-0.0565016, 0.155781, 0.398438
-0.0527344, 0.155781, 0.410038
-0.0527344, 0.159886, 0.404297
-0.0527344, 0.155781, 0.410302
-0.0527344, 0.15658, 0.410156
-0.0527344, 0.155781, 0.421833
-0.0563041, 0.155781, 0.416016
-0.0527344, 0.155781, 0.421927
-0.0557833, 0.155781, 0.427734
-0.0527344, 0.155781, 0.436188
-0.0576888, 0.155781, 0.433594
-0.0527344, 0.160463, 0.439453
-0.0527344, 0.155781, 0.467906
-0.0585938, 0.155781, 0.400373
-0.0585938, 0.155781, 0.409574
-0.0596438, 0.155781, 0.404297
-0.0585938, 0.159551, 0.410156
-0.0878906, 0.155781, 0.468658
0, 0.161641, 0.464787
-0.010135, 0.161641, 0.416016
-0.011162, 0.161641, 0.427734
-0.00585938, 0.161641, 0.46732
-0.0117188, 0.165183, 0.375
-0.0117188, 0.164738, 0.392578
-0.0117188, 0.164652, 0.404297
-0.0117188, 0.161641, 0.414688
-0.0117188, 0.161641, 0.417491
-0.0117188, 0.161641, 0.427255
-0.017039, 0.161641, 0.421875
-0.0117188, 0.16679, 0.421875
-0.0117188, 0.161641, 0.428299
-0.0143076, 0.161641, 0.433594
-0.0117188, 0.161641, 0.467455
-0.0179246, 0.161641, 0.421875
-0.0175781, 0.161641, 0.437029
-0.0175781, 0.166844, 0.433594
-0.0175781, 0.165248, 0.439453
-0.0175781, 0.161641, 0.467682
-0.0234375, 0.161641, 0.426842
-0.0234375, 0.162692, 0.427734
-0.0234375, 0.161641, 0.434167
-0.0234375, 0.161641, 0.467466
-0.0292969, 0.161641, 0.39592
-0.0320758, 0.161641, 0.392578
-0.0292969, 0.163876, 0.392578
-0.0292969, 0.164778, 0.398438
-0.0292969, 0.161641, 0.42113
-0.0292969, 0.161641, 0.422811
-0.0292969, 0.167226, 0.427734
-0.0292969, 0.161641, 0.434697
-0.0301266, 0.161641, 0.433594
-0.0292969, 0.161641, 0.467466
-0.0351562, 0.161641, 0.428825
-0.0394717, 0.161641, 0.427734
-0.0391084, 0.161641, 0.433594
-0.0351562, 0.16525, 0.433594
-0.0351562, 0.161641, 0.468276
-0.0410156, 0.161641, 0.427249
-0.0410156, 0.161641, 0.428584
-0.041646, 0.161641, 0.427734
-0.0410156, 0.161641, 0.438135
-0.0410156, 0.165763, 0.433594
-0.0438392, 0.161641, 0.439453
-0.0410156, 0.161641, 0.466737
-0.046875, 0.161641, 0.384805
-0.0521485, 0.161641, 0.386719
-0.0488057, 0.161641, 0.404297
-0.046875, 0.166576, 0.410156
-0.0509048, 0.161641, 0.421875
-0.046875, 0.165877, 0.421875
-0.046875, 0.161641, 0.440654
-0.046875, 0.167445, 0.439453
-0.046875, 0.161641, 0.467188
-0.0527344, 0.161641, 0.378862
-0.0553369, 0.161641, 0.380859
-0.0527344, 0.167197, 0.380859
-0.0530655, 0.161641, 0.386719
-0.0527344, 0.161965, 0.386719
-0.0585033, 0.161641, 0.392578
-0.0527344, 0.16251, 0.392578
-0.0527344, 0.161641, 0.399842
-0.0536595, 0.161641, 0.398438
-0.0527344, 0.16361, 0.398438
-0.0527344, 0.161641, 0.408788
-0.0571278, 0.161641, 0.404297
-0.0527344, 0.161641, 0.419406
-0.0559192, 0.161641, 0.416016
-0.0527344, 0.164779, 0.416016
-0.0527344, 0.161641, 0.425264
-0.0527344, 0.167473, 0.421875
-0.0544403, 0.161641, 0.427734
-0.0527344, 0.167434, 0.427734
-0.0559462, 0.161641, 0.433594
-0.0527344, 0.162689, 0.433594
-0.0527344, 0.161641, 0.441611
-0.0541561, 0.161641, 0.439453
-0.0527344, 0.161641, 0.466953
-0.0585938, 0.167402, 0.380859
-0.0585938, 0.161641, 0.403327
-0.0594433, 0.161641, 0.404297
-0.0585938, 0.16241, 0.404297
-0.0585938, 0.161641, 0.410341
-0.0587069, 0.161641, 0.410156
-0.0585938, 0.161866, 0.410156
-0.0585938, 0.166851, 0.421875
-0.0585938, 0.161641, 0.467645
-0.0644531, 0.161641, 0.467564
-0.0703125, 0.161641, 0.4679
-0.0820312, 0.161641, 0.468356
-0.0930783, 0.161641, 0.445312
-0.0878906, 0.161641, 0.467119
-0.0930302, 0.161641, 0.462891
-0.0996094, 0.1675, 0.37343
-0.105469, 0.1675, 0.372804
-0.111328, 0.1675, 0.373098
-0.117188, 0.1675, 0.373381
-0.123047, 0.1675, 0.372915
-0.128906, 0.1675, 0.370674
-0.133023, 0.1675, 0.369141
-0.134766, 0.1675, 0.368456
-0.134766, 0.169687, 0.369141
-0.140625, 0.1675, 0.367182
-0.143391, 0.1675, 0.363281
-0.146484, 0.1675, 0.360517
-0.148784, 0.1675, 0.357422
-0.152344, 0.1675, 0.355123
-0.153925, 0.1675, 0.351562
-0.152344, 0.17233, 0.363281
-0.16327, 0.1675, 0.351562
-0.158203, 0.173078, 0.351562
-0.164062, 0.1675, 0.352595
-0.164855, 0.1675, 0.351562
-0.105469, 0.173359, 0.372447
-0.111328, 0.173359, 0.371844
-0.117188, 0.173359, 0.372649
-0.123047, 0.173359, 0.372284
-0.128906, 0.173359, 0.370667
-0.128906, 0.178003, 0.369141
-0.134766, 0.173359, 0.37005
-0.13621, 0.173359, 0.369141
