0.363281011581421, -0.0585937984287739, 0.0888130068778992
0.433593988418579, -0.0175781007856131, 0.226546004414558
0.369141012430191, -0.0585937984287739, 0.0886670053005219
0.43945300579071, -0.0157887991517782, 0.226094007492065
0.445311993360519, -0.0135525995865464, 0.226094007492065
0.45117199420929, -0.0135281002148986, 0.226094007492065
0.323092013597488, -0.0527344010770321, 0.0854690074920654
0.322266012430191, -0.0522298999130726, 0.0854690074920654
0.322266012430191, -0.0527344010770321, 0.0879710018634796
0.457031011581421, -0.0120134996250272, 0.226094007492065
0.363281011581421, -0.0527344010770321, 0.0903480052947998
0.369141012430191, -0.0527344010770321, 0.0905749946832657
0.31827300786972, -0.046875, 0.0854690074920654
0.322266012430191, -0.046875, 0.0896400064229965
0.457415997982025, -0.011718800291419, 0.226094007492065
0.457031011581421, -0.011718800291419, 0.229312002658844
0.325549006462097, -0.0292968992143869, 0.0854690074920654
0.460954993963242, -0.00585938012227416, 0.226094007492065
0.462891012430191, -0.00172101997304708, 0.226094007492065
0.333983987569809, -0.00341335008852184, 0.0854690074920654
0.339843988418579, -0.00222483999095857, 0.0854690074920654
0.351561993360519, -0.000359841011231765, 0.0854690074920654
0.35742199420929, -0.000640015990938991, 0.0854690074920654
0.374713003635406, -0.0878906026482582, 0.0913279950618744
0.374516010284424, -0.0761718973517418, 0.0913279950618744
0.374646991491318, -0.0703125, 0.0913279950618744
0.339843988418579, -0.0600479990243912, 0.0913279950618744
0.34570300579071, -0.0628528967499733, 0.0913279950618744
0.351561993360519, -0.0600758008658886, 0.0913279950618744
0.373396992683411, -0.0644531026482582, 0.0913279950618744
0.322266012430191, -0.0541298985481262, 0.0913279950618744
0.328125, -0.0535512007772923, 0.0913279950618744
0.338122010231018, -0.0585937984287739, 0.0913279950618744
0.333983987569809, -0.0566781014204025, 0.0913279950618744
0.339843988418579, -0.0585937984287739, 0.0945679992437363
0.356691002845764, -0.0585937984287739, 0.0913279950618744
0.35742199420929, -0.0566592998802662, 0.0913279950618744
0.37322399020195, -0.0585937984287739, 0.0913279950618744
0.321682989597321, -0.0527344010770321, 0.0913279950618744
0.322266012430191, -0.0513398014008999, 0.0913279950618744
0.360825002193451, -0.0527344010770321, 0.0913279950618744
0.363281011581421, -0.0513890013098717, 0.0913279950618744
0.370748996734619, -0.0527344010770321, 0.0913279950618744
0.369141012430191, -0.0469920001924038, 0.0913279950618744
0.324687987565994, -0.046875, 0.0913279950618744
0.421875, -0.0176567006856203, 0.231953009963036
0.322266012430191, -0.046875, 0.0963450074195862
0.375, -0.0148927997797728, 0.231953009963036
0.363281011581421, -0.046875, 0.0946869999170303
0.369141012430191, -0.046875, 0.0913490056991577
0.380858987569809, -0.0150282997637987, 0.231953009963036
0.386718988418579, -0.0148358000442386, 0.231953009963036
0.39257800579071, -0.0138002997264266, 0.231953009963036
0.398438006639481, -0.0169048998504877, 0.231953009963036
0.363281011581421, -0.0410155989229679, 0.0961720049381256
0.369141012430191, -0.0410155989229679, 0.0922210067510605
0.40429699420929, -0.0140672996640205, 0.231953009963036
0.410156011581421, -0.0143635999411345, 0.231953009963036
0.420206010341644, -0.0175781007856131, 0.231953009963036
0.416016012430191, -0.016966400668025, 0.231953009963036
0.369141012430191, -0.0351562015712261, 0.0945679992437363
0.422288000583649, -0.0175781007856131, 0.231953009963036
0.421875, -0.0175781007856131, 0.232719019055367
0.427733987569809, -0.0150018995627761, 0.231953009963036
0.433593988418579, -0.0153062995523214, 0.231953009963036
0.43945300579071, -0.0144707001745701, 0.231953009963036
0.445311993360519, -0.0138343004509807, 0.231953009963036
0.45117199420929, -0.0126505997031927, 0.231953009963036
0.455899000167847, -0.011718800291419, 0.231953009963036
0.45117199420929, -0.011718800291419, 0.237737014889717
0.333983987569809, -0.0029062801040709, 0.0913279950618744
0.457031011581421, -0.0111276004463434, 0.231953009963036
0.339843988418579, -0.00335395010188222, 0.0913279950618744
0.351561993360519, -0.00585938012227416, 0.0965909957885742
0.363281011581421, -0.00216266000643373, 0.0913279950618744
0.46171298623085, -0.00585938012227416, 0.231953009963036
0.34570300579071, -0.0616092011332512, 0.0971879959106445
0.351561993360519, -0.0613389015197754, 0.0971879959106445
0.322266012430191, -0.053328201174736, 0.0971879959106445
0.328125, -0.05356540158391, 0.0971879959106445
0.333983987569809, -0.0552382990717888, 0.0971879959106445
0.341405987739563, -0.0585937984287739, 0.0971879959106445
0.339843988418579, -0.0554149001836777, 0.0971879959106445
0.356875985860825, -0.0585937984287739, 0.0971879959106445
0.35742199420929, -0.0577218011021614, 0.0971879959106445
0.322135001420975, -0.0527344010770321, 0.0971879959106445
0.322266012430191, -0.0527344010770321, 0.0982050001621246
0.328125, -0.0527344010770321, 0.101508006453514
0.333983987569809, -0.0527344010770321, 0.0999950021505356
0.35987201333046, -0.0527344010770321, 0.0971879959106445
0.322266012430191, -0.0456455014646053, 0.0971879959106445
0.333983987569809, -0.046875, 0.10088899731636
0.34570300579071, -0.046875, 0.102560997009277
0.361651986837387, -0.046875, 0.0971879959106445
0.362608999013901, -0.0410155989229679, 0.0971879959106445
0.363281011581421, -0.0396860018372536, 0.0971879959106445
0.328125, -0.0351562015712261, 0.102118998765945
0.366901993751526, -0.0351562015712261, 0.0971879959106445
0.363281011581421, -0.0351562015712261, 0.102016001939774
0.369141012430191, -0.0313981994986534, 0.0971879959106445
0.375, -0.0126029001548886, 0.237811997532845
0.380858987569809, -0.0119968997314572, 0.237811997532845
0.386718988418579, -0.013328299857676, 0.237811997532845
0.39257800579071, -0.0133937997743487, 0.237811997532845
0.398438006639481, -0.0133178001269698, 0.237811997532845
0.351561993360519, -0.00656868983060122, 0.0971879959106445
0.40429699420929, -0.0141188995912671, 0.237811997532845
0.410156011581421, -0.0134519003331661, 0.237811997532845
0.416016012430191, -0.0137761002406478, 0.237811997532845
0.421875, -0.0155864004045725, 0.237811997532845
0.427733987569809, -0.0141495000571013, 0.237811997532845
0.350787997245789, -0.00585938012227416, 0.0971879959106445
0.433593988418579, -0.0152398999780416, 0.237811997532845
0.352654010057449, -0.00585938012227416, 0.0971879959106445
0.351561993360519, -0.00266722007654607, 0.0971879959106445
0.43945300579071, -0.0139672998338938, 0.237811997532845
0.351561993360519, -0.00585938012227416, 0.0976040065288544
0.445311993360519, -0.0134779000654817, 0.237811997532845
0.363281011581421, -0.00265099992975593, 0.0971879959106445
0.375, -0.011718800291419, 0.238978996872902
0.380858987569809, -0.011718800291419, 0.238926991820335
0.39257800579071, -0.011718800291419, 0.242660000920296
0.398438006639481, -0.011718800291419, 0.242739006876946
0.433593988418579, -0.011718800291419, 0.24337001144886
0.451056003570557, -0.011718800291419, 0.237811997532845
0.445311993360519, -0.011718800291419, 0.240840002894402
0.45117199420929, -0.0116392998024821, 0.237811997532845
0.457031011581421, -0.00881955958902836, 0.237811997532845
0.459701985120773, -0.00585938012227416, 0.237811997532845
0.457031011581421, -0.00585938012227416, 0.242391005158424
0.34570300579071, -0.0598681010305882, 0.103046998381615
0.351561993360519, -0.0615409016609192, 0.103046998381615
0.344581007957459, -0.0585937984287739, 0.103046998381615
0.339843988418579, -0.0551563985645771, 0.103046998381615
0.357331991195679, -0.0585937984287739, 0.103046998381615
0.35742199420929, -0.0584793016314507, 0.103046998381615
0.322266012430191, -0.0520619004964828, 0.103046998381615
0.328125, -0.052223201841116, 0.103046998381615
0.336955994367599, -0.0527344010770321, 0.103046998381615
0.333983987569809, -0.0527344010770321, 0.105870008468628
0.34570300579071, -0.0473529994487762, 0.103046998381615
0.359845995903015, -0.0527344010770321, 0.103046998381615
0.322266012430191, -0.0421606004238129, 0.103046998381615
0.331306010484695, -0.046875, 0.103046998381615
0.328125, -0.0444267988204956, 0.103046998381615
0.336362987756729, -0.046875, 0.103046998381615
0.333983987569809, -0.0429040007293224, 0.103046998381615
0.333983987569809, -0.046875, 0.104374006390572
0.345405012369156, -0.046875, 0.103046998381615
0.346076011657715, -0.046875, 0.103046998381615
0.34570300579071, -0.0465103983879089, 0.103046998381615
0.359939008951187, -0.046875, 0.103046998381615
0.332675993442535, -0.0410155989229679, 0.103046998381615
0.361582010984421, -0.0410155989229679, 0.103046998381615
0.362828999757767, -0.0351562015712261, 0.103046998381615
0.363281011581421, -0.0348686017096043, 0.103046998381615
0.369141012430191, -0.031794399023056, 0.103046998381615
0.331485003232956, -0.0234375, 0.103046998381615
0.34570300579071, -0.000992711982689798, 0.103046998381615
0.386718988418579, -0.0121205002069473, 0.243671998381615
0.40429699420929, -0.0123826004564762, 0.243671998381615
0.410156011581421, -0.0121149001643062, 0.243671998381615
0.416016012430191, -0.0118634002283216, 0.243671998381615
0.421875, -0.0131933996453881, 0.243671998381615
0.427733987569809, -0.0128221996128559, 0.243671998381615
0.43945300579071, -0.0132692996412516, 0.243671998381615
0.375, -0.00702012982219458, 0.243671998381615
0.384732991456985, -0.011718800291419, 0.243671998381615
0.380858987569809, -0.00978290010243654, 0.243671998381615
0.389613002538681, -0.011718800291419, 0.243671998381615
0.386718988418579, -0.011718800291419, 0.245195999741554
0.39257800579071, -0.0106076002120972, 0.243671998381615
0.400750994682312, -0.011718800291419, 0.243671998381615
0.398438006639481, -0.0104400999844074, 0.243671998381615
0.40429699420929, -0.011718800291419, 0.245877012610435
0.34570300579071, -0.0615370981395245, 0.108906000852585
0.351561993360519, -0.0610467009246349, 0.108906000852585
0.410156011581421, -0.011718800291419, 0.245199009776115
0.416016012430191, -0.011718800291419, 0.244158998131752
0.421875, -0.011718800291419, 0.245654001832008
0.333983987569809, -0.0566015988588333, 0.108906000852585
0.343457013368607, -0.0585937984287739, 0.108906000852585
0.339843988418579, -0.0559066012501717, 0.108906000852585
0.43205600976944, -0.011718800291419, 0.243671998381615
0.427733987569809, -0.011718800291419, 0.245213016867638
0.357064992189407, -0.0585937984287739, 0.108906000852585
0.434572994709015, -0.011718800291419, 0.243671998381615
0.433593988418579, -0.0111742001026869, 0.243671998381615
0.35742199420929, -0.0580655001103878, 0.108906000852585
0.442312985658646, -0.011718800291419, 0.243671998381615
0.43945300579071, -0.011718800291419, 0.246155992150307
0.445311993360519, -0.00917011965066195, 0.243671998381615
0.330857992172241, -0.0527344010770321, 0.108906000852585
0.45117199420929, -0.00867229979485273, 0.243671998381615
0.328125, -0.0477605983614922, 0.108906000852585
0.328125, -0.0527344010770321, 0.110567003488541
0.375, -0.00585938012227416, 0.245682999491692
0.34570300579071, -0.0477822013199329, 0.108906000852585
0.380858987569809, -0.00585938012227416, 0.247075006365776
0.386718988418579, -0.00585938012227416, 0.247901007533073
0.359425991773605, -0.0527344010770321, 0.108906000852585
0.39257800579071, -0.00585938012227416, 0.248368009924889
0.398438006639481, -0.00585938012227416, 0.248058006167412
0.344864994287491, -0.046875, 0.108906000852585
0.40429699420929, -0.00585938012227416, 0.24821700155735
0.347218006849289, -0.046875, 0.108906000852585
0.410156011581421, -0.00585938012227416, 0.248096004128456
0.34570300579071, -0.0448068007826805, 0.108906000852585
0.34570300579071, -0.046875, 0.109954997897148
0.416016012430191, -0.00585938012227416, 0.248155996203423
0.421875, -0.00585938012227416, 0.248231992125511
0.358972012996674, -0.046875, 0.108906000852585
0.427733987569809, -0.00585938012227416, 0.248305991292
0.433593988418579, -0.00585938012227416, 0.248507991433144
0.43945300579071, -0.00585938012227416, 0.248087003827095
0.445311993360519, -0.00585938012227416, 0.247519001364708
0.360150009393692, -0.0410155989229679, 0.108906000852585
0.45542499423027, -0.00585938012227416, 0.243671998381615
0.45117199420929, -0.00585938012227416, 0.24634100496769
0.457031011581421, -0.00150799995753914, 0.243671998381615
0.33092200756073, -0.0351562015712261, 0.108906000852585
0.328125, -0.0351562015712261, 0.11157600581646
0.362540006637573, -0.0351562015712261, 0.108906000852585
0.363281011581421, -0.0345575995743275, 0.108906000852585
0.369141012430191, -0.0324885994195938, 0.108906000852585
0.333983987569809, -0.0175781007856131, 0.112718999385834
0.34570300579071, -0.0632112994790077, 0.114766001701355
0.351561993360519, -0.0605357997119427, 0.114766001701355
0.328125, -0.0562233999371529, 0.114766001701355
0.333983987569809, -0.0575206987559795, 0.114766001701355
0.342408001422882, -0.0585937984287739, 0.114766001701355
0.339843988418579, -0.0563076995313168, 0.114766001701355
0.355327993631363, -0.0585937984287739, 0.114766001701355
0.35742199420929, -0.0554539002478123, 0.114766001701355
0.358462989330292, -0.0527344010770321, 0.114766001701355
0.358980000019073, -0.046875, 0.114766001701355
0.359028995037079, -0.0410155989229679, 0.114766001701355
0.328125, -0.0351562015712261, 0.119498997926712
0.362513989210129, -0.0351562015712261, 0.114766001701355
0.363281011581421, -0.0343126989901066, 0.114766001701355
0.369141012430191, -0.0315188989043236, 0.114766001701355
0.372141987085342, -0.0292968992143869, 0.114766001701355
0.333983987569809, -0.0190213993191719, 0.114766001701355
0.333983987569809, -0.0234375, 0.119856998324394
0.335969001054764, -0.0175781007856131, 0.114766001701355
0.333983987569809, -0.0160552002489567, 0.114766001701355
0.34570300579071, -0.0617320984601974, 0.120625004172325
0.351561993360519, -0.0607649013400078, 0.120625004172325
0.328125, -0.0561214983463287, 0.120625004172325
0.333983987569809, -0.0556012988090515, 0.120625004172325
0.342316001653671, -0.0585937984287739, 0.120625004172325
0.339843988418579, -0.0565853007137775, 0.120625004172325
0.339843988418579, -0.0585937984287739, 0.124601006507874
0.356368988752365, -0.0585937984287739, 0.120625004172325
0.351561993360519, -0.0585937984287739, 0.126429006457329
0.35742199420929, -0.0566443987190723, 0.120625004172325
0.328125, -0.0527344010770321, 0.124688997864723
0.358570992946625, -0.0527344010770321, 0.120625004172325
0.358227014541626, -0.046875, 0.120625004172325
0.359622985124588, -0.0410155989229679, 0.120625004172325
0.328934997320175, -0.0351562015712261, 0.120625004172325
0.328125, -0.0343835018575192, 0.120625004172325
0.360536009073257, -0.0351562015712261, 0.120625004172325
0.363281011581421, -0.0315160006284714, 0.120625004172325
0.369141012430191, -0.0299673993140459, 0.120625004172325
0.333983987569809, -0.0243935007601976, 0.120625004172325
0.373356014490128, -0.0292968992143869, 0.120625004172325
0.335025995969772, -0.0234375, 0.120625004172325
0.339843988418579, -0.011718800291419, 0.124292999505997
0.339843988418579, -0.06222889944911, 0.126484006643295
0.34570300579071, -0.0616121999919415, 0.126484006643295
0.337186992168427, -0.0585937984287739, 0.126484006643295
0.333983987569809, -0.0572225004434586, 0.126484006643295
0.333983987569809, -0.0585937984287739, 0.128333002328873
0.351525992155075, -0.0585937984287739, 0.126484006643295
0.351561993360519, -0.0585549995303154, 0.126484006643295
0.351561993360519, -0.0585937984287739, 0.12652400135994
0.35742199420929, -0.0555042997002602, 0.126484006643295
0.330148011445999, -0.0527344010770321, 0.126484006643295
0.358310997486115, -0.0527344010770321, 0.126484006643295
0.359055012464523, -0.046875, 0.126484006643295
0.35742199420929, -0.046875, 0.129997998476028
0.359750002622604, -0.0410155989229679, 0.126484006643295
0.35742199420929, -0.0410155989229679, 0.132180005311966
0.359091013669968, -0.0351562015712261, 0.126484006643295
0.363281011581421, -0.0306083001196384, 0.126484006643295
0.369141012430191, -0.0293534994125366, 0.126484006643295
0.363281011581421, -0.0292968992143869, 0.131595000624657
0.369376987218857, -0.0292968992143869, 0.126484006643295
0.369141012430191, -0.0292968992143869, 0.126670002937317
0.339843988418579, -0.0149352001026273, 0.126484006643295
0.342559993267059, -0.011718800291419, 0.126484006643295
0.339843988418579, -0.00943322014063597, 0.126484006643295
0.339843988418579, -0.011718800291419, 0.129301011562347
0.337604999542236, -0.00585938012227416, 0.126484006643295
0.34570300579071, -0.00585938012227416, 0.12975999712944
0.333983987569809, -0.0609247982501984, 0.132344007492065
0.333983987569809, -0.0644531026482582, 0.136495009064674
0.339843988418579, -0.061862900853157, 0.132344007492065
0.34570300579071, -0.0606459006667137, 0.132344007492065
0.351561993360519, -0.0607642009854317, 0.132344007492065
0.332322001457214, -0.0585937984287739, 0.132344007492065
0.356353998184204, -0.0585937984287739, 0.132344007492065
0.35742199420929, -0.0555156990885735, 0.132344007492065
0.358307003974915, -0.0527344010770321, 0.132344007492065
0.35742199420929, -0.0494671985507011, 0.132344007492065
0.35700199007988, -0.046875, 0.132344007492065
0.35742199420929, -0.046875, 0.135003998875618
0.357372999191284, -0.0410155989229679, 0.132344007492065
0.35742199420929, -0.0407756008207798, 0.132344007492065
0.35742199420929, -0.0410155989229679, 0.132613003253937
0.360110998153687, -0.0351562015712261, 0.132344007492065
0.36320099234581, -0.0292968992143869, 0.132344007492065
0.363281011581421, -0.0291910003870726, 0.132344007492065
0.369141012430191, -0.0264890994876623, 0.132344007492065
0.34570300579071, -0.010402999818325, 0.132344007492065
0.348448991775513, -0.00585938012227416, 0.132344007492065
0.333983987569809, -0.0657408982515335, 0.138203009963036
0.332634001970291, -0.0644531026482582, 0.138203009963036
0.337015002965927, -0.0644531026482582, 0.138203009963036
0.339843988418579, -0.0616112016141415, 0.138203009963036
0.34570300579071, -0.0621913000941277, 0.138203009963036
0.351561993360519, -0.0604648999869823, 0.138203009963036
0.331339001655579, -0.0585937984287739, 0.138203009963036
0.354584008455276, -0.0585937984287739, 0.138203009963036
0.35742199420929, -0.0549775995314121, 0.138203009963036
0.35742199420929, -0.0585937984287739, 0.14384800195694
0.359115988016129, -0.0527344010770321, 0.138203009963036
0.358411014080048, -0.046875, 0.138203009963036
0.359100997447968, -0.0410155989229679, 0.138203009963036
0.359993994235992, -0.0351562015712261, 0.138203009963036
0.363270998001099, -0.0292968992143869, 0.138203009963036
0.363281011581421, -0.0292819999158382, 0.138203009963036
0.363281011581421, -0.0292968992143869, 0.138251006603241
0.369141012430191, -0.0236563999205828, 0.138203009963036
0.369141012430191, -0.0234375, 0.139721006155014
0.333983987569809, -0.0653486996889114, 0.144061997532845
0.333983987569809, -0.0703125, 0.149696007370949
0.292968988418579, -0.0644531026482582, 0.148798003792763
0.29882800579071, -0.0644531026482582, 0.148062005639076
0.304688006639481, -0.0644531026482582, 0.147760003805161
0.31054699420929, -0.0644531026482582, 0.147976011037827
0.316406011581421, -0.0644531026482582, 0.147749006748199
0.322266012430191, -0.0644531026482582, 0.147380009293556
0.332985997200012, -0.0644531026482582, 0.144061997532845
0.328125, -0.0644531026482582, 0.14732700586319
0.337687999010086, -0.0644531026482582, 0.144061997532845
0.339843988418579, -0.0634858980774879, 0.144061997532845
0.339843988418579, -0.0644531026482582, 0.145025998353958
0.34570300579071, -0.0614667981863022, 0.144061997532845
0.34570300579071, -0.0644531026482582, 0.147303000092506
0.351561993360519, -0.0592458993196487, 0.144061997532845
0.35742199420929, -0.0586606003344059, 0.144061997532845
0.330439001321793, -0.0585937984287739, 0.144061997532845
0.328125, -0.0585937984287739, 0.145824000239372
0.3575139939785, -0.0585937984287739, 0.144061997532845
0.358981996774673, -0.0527344010770321, 0.144061997532845
0.360024988651276, -0.046875, 0.144061997532845
0.359037011861801, -0.0410155989229679, 0.144061997532845
0.361645996570587, -0.0351562015712261, 0.144061997532845
0.363281011581421, -0.0313500985503197, 0.144061997532845
0.364629000425339, -0.0292968992143869, 0.144061997532845
0.363281011581421, -0.0292968992143869, 0.148671001195908
0.367873013019562, -0.0234375, 0.144061997532845
0.369141012430191, -0.022138100117445, 0.144061997532845
0.369141012430191, -0.0175781007856131, 0.14852200448513
0.351561993360519, -0.00348425004631281, 0.144061997532845
0.333983987569809, -0.0706247985363007, 0.149921998381615
0.28125, -0.0703125, 0.153825998306274
0.287108987569809, -0.0703125, 0.155219003558159
0.292968988418579, -0.0656580030918121, 0.149921998381615
0.292968988418579, -0.0703125, 0.155256003141403
0.29882800579071, -0.0674614012241364, 0.149921998381615
0.29882800579071, -0.0703125, 0.155444011092186
0.304688006639481, -0.0680646002292633, 0.149921998381615
0.304688006639481, -0.0703125, 0.154734998941422
0.31054699420929, -0.0675197020173073, 0.149921998381615
0.316406011581421, -0.0677400976419449, 0.149921998381615
0.322266012430191, -0.0692374035716057, 0.149921998381615
0.322266012430191, -0.0703125, 0.153858006000519
0.332982003688812, -0.0703125, 0.149921998381615
0.328125, -0.0690364986658096, 0.149921998381615
0.337168008089066, -0.0703125, 0.149921998381615
0.339843988418579, -0.0699644982814789, 0.149921998381615
0.339843988418579, -0.0703125, 0.152018010616302
0.34570300579071, -0.0675920993089676, 0.149921998381615
0.28125, -0.0614676997065544, 0.149921998381615
0.28125, -0.0644531026482582, 0.152966007590294
0.291110008955002, -0.0644531026482582, 0.149921998381615
0.287108987569809, -0.0612447001039982, 0.149921998381615
0.287108987569809, -0.0644531026482582, 0.15216600894928
0.349545001983643, -0.0644531026482582, 0.149921998381615
0.351561993360519, -0.0624359995126724, 0.149921998381615
0.35742199420929, -0.0597859993577003, 0.149921998381615
0.358604997396469, -0.0585937984287739, 0.149921998381615
0.360679000616074, -0.0527344010770321, 0.149921998381615
0.360592007637024, -0.046875, 0.149921998381615
0.359804004430771, -0.0410155989229679, 0.149921998381615
0.361566990613937, -0.0351562015712261, 0.149921998381615
0.362971991300583, -0.0292968992143869, 0.149921998381615
0.363281011581421, -0.0270514991134405, 0.149921998381615
0.364228010177612, -0.0234375, 0.149921998381615
0.363281011581421, -0.0234375, 0.15158499777317
0.367989003658295, -0.0175781007856131, 0.149921998381615
0.369141012430191, -0.0164305996149778, 0.149921998381615
0.28125, -0.0728093981742859, 0.155781000852585
0.287108987569809, -0.0716829970479012, 0.155781000852585
0.292968988418579, -0.0714714974164963, 0.155781000852585
0.29882800579071, -0.0706233009696007, 0.155781000852585
0.304688006639481, -0.0711278989911079, 0.155781000852585
0.322266012430191, -0.0711664035916328, 0.155781000852585
0.333983987569809, -0.071653701364994, 0.155781000852585
0.339843988418579, -0.070819303393364, 0.155781000852585
0.29882800579071, -0.0703125, 0.158099010586739
0.309673011302948, -0.0703125, 0.155781000852585
0.304688006639481, -0.0703125, 0.160206004977226
0.31054699420929, -0.0701904967427254, 0.155781000852585
0.317223995923996, -0.0703125, 0.155781000852585
0.316406011581421, -0.0702091977000237, 0.155781000852585
0.326579004526138, -0.0703125, 0.155781000852585
0.322266012430191, -0.0703125, 0.158806011080742
0.329010009765625, -0.0703125, 0.155781000852585
0.328125, -0.0700886994600296, 0.155781000852585
0.333983987569809, -0.0703125, 0.159656003117561
0.340813010931015, -0.0703125, 0.155781000852585
0.34570300579071, -0.0682286024093628, 0.155781000852585
0.35130700469017, -0.0644531026482582, 0.155781000852585
0.351561993360519, -0.0641850978136063, 0.155781000852585
0.351561993360519, -0.0644531026482582, 0.157260999083519
0.35742199420929, -0.0608819983899593, 0.155781000852585
0.359147012233734, -0.0585937984287739, 0.155781000852585
0.360578000545502, -0.0527344010770321, 0.155781000852585
0.361725002527237, -0.046875, 0.155781000852585
0.36132800579071, -0.0410155989229679, 0.155781000852585
0.361353009939194, -0.0351562015712261, 0.155781000852585
0.361052989959717, -0.0292968992143869, 0.155781000852585
0.361995995044708, -0.0234375, 0.155781000852585
0.363281011581421, -0.0191044006496668, 0.155781000852585
0.364003002643585, -0.0175781007856131, 0.155781000852585
0.369141012430191, -0.0129728997126222, 0.155781000852585
0.371558994054794, -0.011718800291419, 0.155781000852585
0.369141012430191, -0.011718800291419, 0.157879009842873
0.28125, -0.0718031972646713, 0.161641001701355
0.287108987569809, -0.0728707015514374, 0.161641001701355
0.292968988418579, -0.0718643963336945, 0.161641001701355
0.339843988418579, -0.0705825984477997, 0.161641001701355
0.297461003065109, -0.0703125, 0.161641001701355
0.29882800579071, -0.069897897541523, 0.161641001701355
0.304688006639481, -0.0700455978512764, 0.161641001701355
0.31054699420929, -0.0696993991732597, 0.161641001701355
0.316406011581421, -0.0698378011584282, 0.161641001701355
0.322266012430191, -0.069642499089241, 0.161641001701355
0.328125, -0.070200003683567, 0.161641001701355
0.33831599354744, -0.0703125, 0.161641001701355
0.333983987569809, -0.0695443004369736, 0.161641001701355
0.342402011156082, -0.0703125, 0.161641001701355
0.34570300579071, -0.0697766020894051, 0.161641001701355
0.351561993360519, -0.0654079020023346, 0.161641001701355
0.352438002824783, -0.0644531026482582, 0.161641001701355
0.35742199420929, -0.0599685981869698, 0.161641001701355
0.35895499587059, -0.0585937984287739, 0.161641001701355
0.361108988523483, -0.0527344010770321, 0.161641001701355
0.361187011003494, -0.046875, 0.161641001701355
0.361187011003494, -0.0410155989229679, 0.161641001701355
0.361606985330582, -0.0351562015712261, 0.161641001701355
0.360646992921829, -0.0292968992143869, 0.161641001701355
0.360691010951996, -0.0234375, 0.161641001701355
0.363281011581421, -0.0191686991602182, 0.161641001701355
0.364596009254456, -0.0175781007856131, 0.161641001701355
0.363281011581421, -0.0175781007856131, 0.163863003253937
0.36777400970459, -0.011718800291419, 0.161641001701355
0.369141012430191, -0.00825250986963511, 0.161641001701355
0.474608987569809, 0.09375, 0.0316784009337425
0.480468988418579, 0.09375, 0.0314153023064137
0.48632800579071, 0.10546900331974, 0.0321084000170231
0.474608987569809, 0.1171879991889, 0.0306655019521713
0.492188006639481, 0.1171879991889, 0.0307457000017166
0.48632800579071, 0.12304700165987, 0.0307695008814335
0.474608987569809, 0.0938901975750923, 0.0327344015240669
0.484162002801895, 0.09375, 0.0327344015240669
0.480468988418579, 0.0947455018758774, 0.0327344015240669
0.48632800579071, 0.09375, 0.0343736000359058
0.474608987569809, 0.102949000895023, 0.0327344015240669
0.48632800579071, 0.0996093973517418, 0.0370835997164249
0.476386994123459, 0.10546900331974, 0.0327344015240669
0.48632800579071, 0.105852998793125, 0.0327344015240669
0.48632800579071, 0.10546900331974, 0.0333425998687744
0.492188006639481, 0.109490998089314, 0.0327344015240669
0.47341001033783, 0.11132799834013, 0.0327344015240669
0.46875, 0.11591400206089, 0.0327344015240669
0.46875, 0.11132799834013, 0.0371738001704216
0.476422011852264, 0.11132799834013, 0.0327344015240669
0.484221011400223, 0.11132799834013, 0.0327344015240669
0.480468988418579, 0.11132799834013, 0.0351943001151085
0.48632800579071, 0.115185998380184, 0.0327344015240669
0.495362997055054, 0.11132799834013, 0.0327344015240669
0.46875, 0.1171879991889, 0.0378930009901524
0.476583987474442, 0.1171879991889, 0.0327344015240669
0.474608987569809, 0.122349001467228, 0.0327344015240669
0.480468988418579, 0.1171879991889, 0.0352940000593662
0.488940000534058, 0.1171879991889, 0.0327344015240669
0.48632800579071, 0.1171879991889, 0.0354247987270355
0.495359987020493, 0.1171879991889, 0.0327344015240669
0.492188006639481, 0.119684003293514, 0.0327344015240669
0.49804699420929, 0.1171879991889, 0.0382900014519691
0.472054004669189, 0.12304700165987, 0.0327344015240669
0.46875, 0.124208003282547, 0.0327344015240669
0.474608987569809, 0.12304700165987, 0.0331714004278183
0.492188006639481, 0.12304700165987, 0.0384524017572403
0.474608987569809, 0.0969984978437424, 0.0385937988758087
0.480468988418579, 0.0943868011236191, 0.0385937988758087
0.490117996931076, 0.09375, 0.0385937988758087
0.474608987569809, 0.101346001029015, 0.0385937988758087
0.474608987569809, 0.0996093973517418, 0.0421827994287014
0.485614001750946, 0.0996093973517418, 0.0385937988758087
0.480468988418579, 0.0996093973517418, 0.04296750202775
0.487984985113144, 0.0996093973517418, 0.0385937988758087
0.477474987506866, 0.10546900331974, 0.0385937988758087
0.485127985477448, 0.10546900331974, 0.0385937988758087
0.480468988418579, 0.108332999050617, 0.0385937988758087
0.480468988418579, 0.10546900331974, 0.0420465990900993
0.491836994886398, 0.10546900331974, 0.0385937988758087
0.48632800579071, 0.10546900331974, 0.043724600225687
0.492188006639481, 0.106583997607231, 0.0385937988758087
0.492188006639481, 0.10546900331974, 0.0393011011183262
0.46875, 0.116568997502327, 0.0385937988758087
0.493708997964859, 0.11132799834013, 0.0385937988758087
0.49804699420929, 0.116835996508598, 0.0385937988758087
0.49804699420929, 0.11132799834013, 0.0428395010530949
0.469000995159149, 0.1171879991889, 0.0385937988758087
0.46875, 0.118014998733997, 0.0385937988758087
0.46875, 0.1171879991889, 0.0390513017773628
0.480468988418579, 0.120485998690128, 0.0385937988758087
0.48632800579071, 0.121403001248837, 0.0385937988758087
0.498317986726761, 0.1171879991889, 0.0385937988758087
0.49804699420929, 0.117375999689102, 0.0385937988758087
0.46875, 0.12534399330616, 0.0385937988758087
0.477304011583328, 0.12304700165987, 0.0385937988758087
0.474608987569809, 0.127570003271103, 0.0385937988758087
0.491703003644943, 0.12304700165987, 0.0385937988758087
0.492323994636536, 0.12304700165987, 0.0385937988758087
0.492188006639481, 0.123117998242378, 0.0385937988758087
0.492188006639481, 0.12304700165987, 0.038984902203083
0.490617007017136, 0.09375, 0.044453103095293
0.48632800579071, 0.09375, 0.0472018010914326
0.487789005041122, 0.0996093973517418, 0.044453103095293
0.48632800579071, 0.104226998984814, 0.044453103095293
0.492188006639481, 0.104147002100945, 0.044453103095293
0.492188006639481, 0.0996093973517418, 0.0472596026957035
0.486036002635956, 0.10546900331974, 0.044453103095293
0.487702995538712, 0.10546900331974, 0.044453103095293
0.48632800579071, 0.105857998132706, 0.044453103095293
0.48632800579071, 0.10546900331974, 0.0447395034134388
0.493431985378265, 0.10546900331974, 0.044453103095293
0.49804699420929, 0.110472999513149, 0.044453103095293
0.498632997274399, 0.11132799834013, 0.044453103095293
0.480468988418579, 0.122808001935482, 0.044453103095293
0.48632800579071, 0.121028997004032, 0.044453103095293
0.492188006639481, 0.122167997062206, 0.044453103095293
0.500765979290009, 0.1171879991889, 0.044453103095293
0.49804699420929, 0.119594000279903, 0.044453103095293
0.46875, 0.12406600266695, 0.044453103095293
0.479609996080399, 0.12304700165987, 0.044453103095293
0.474608987569809, 0.127444997429848, 0.044453103095293
0.480468988418579, 0.12304700165987, 0.0450701005756855
0.48632800579071, 0.12304700165987, 0.0467079989612103
0.492188006639481, 0.12304700165987, 0.0457531027495861
0.483485996723175, 0.09375, 0.0503125004470348
0.48632800579071, 0.0989255979657173, 0.0503125004470348
0.492188006639481, 0.0942550003528595, 0.0503125004470348
0.492188006639481, 0.09375, 0.0522715039551258
0.48632800579071, 0.0996093973517418, 0.0555672980844975
0.495941996574402, 0.0996093973517418, 0.0503125004470348
0.495402008295059, 0.10546900331974, 0.0503125004470348
0.49804699420929, 0.108677998185158, 0.0503125004470348
0.49804699420929, 0.10546900331974, 0.0522270984947681
0.503906011581421, 0.10546900331974, 0.0561020039021969
0.500989973545074, 0.11132799834013, 0.0503125004470348
0.503906011581421, 0.11132799834013, 0.0518704988062382
0.501824975013733, 0.1171879991889, 0.0503125004470348
0.49804699420929, 0.120834000408649, 0.0503125004470348
0.503906011581421, 0.1171879991889, 0.053517397493124
0.46875, 0.125716000795364, 0.0503125004470348
0.474608987569809, 0.126432999968529, 0.0503125004470348
0.480468988418579, 0.126999005675316, 0.0503125004470348
0.48632800579071, 0.126712992787361, 0.0503125004470348
0.495889008045197, 0.12304700165987, 0.0503125004470348
0.492188006639481, 0.128443002700806, 0.0503125004470348
0.49804699420929, 0.12304700165987, 0.0539499036967754
0.480468988418579, 0.12890599668026, 0.0560200996696949
0.484539002180099, 0.09375, 0.0561718977987766
0.490936011075974, 0.09375, 0.0561718977987766
0.493411004543304, 0.09375, 0.0561718977987766
0.486288994550705, 0.0996093973517418, 0.0561718977987766
0.486373990774155, 0.0996093973517418, 0.0561718977987766
0.48632800579071, 0.0996420979499817, 0.0561718977987766
0.48632800579071, 0.0996093973517418, 0.056191798299551
0.496807008981705, 0.0996093973517418, 0.0561718977987766
0.49804699420929, 0.100777998566628, 0.0561718977987766
0.49804699420929, 0.0996093973517418, 0.0571763999760151
0.503906011581421, 0.105412997305393, 0.0561718977987766
0.503957986831665, 0.10546900331974, 0.0561718977987766
0.509765982627869, 0.10546900331974, 0.0606832019984722
0.508791029453278, 0.11132799834013, 0.0561718977987766
0.505850970745087, 0.1171879991889, 0.0561718977987766
0.503906011581421, 0.119511000812054, 0.0561718977987766
0.46875, 0.125628992915154, 0.0561718977987766
0.474608987569809, 0.124288998544216, 0.0561718977987766
0.48632800579071, 0.12618499994278, 0.0561718977987766
0.492188006639481, 0.126409992575645, 0.0561718977987766
0.500086009502411, 0.12304700165987, 0.0561718977987766
0.49804699420929, 0.124172002077103, 0.0561718977987766
0.46875, 0.12890599668026, 0.0598766021430492
0.480378001928329, 0.12890599668026, 0.0561718977987766
0.480524986982346, 0.12890599668026, 0.0561718977987766
0.480468988418579, 0.128960996866226, 0.0561718977987766
0.480468988418579, 0.12890599668026, 0.0563589967787266
0.492188006639481, 0.12890599668026, 0.0607415027916431
0.484724998474121, 0.09375, 0.0620311982929707
0.488590985536575, 0.09375, 0.0620311982929707
0.48632800579071, 0.0951630994677544, 0.0620311982929707
0.48632800579071, 0.09375, 0.0641957074403763
0.496535986661911, 0.09375, 0.0620311982929707
0.49804699420929, 0.0951484963297844, 0.0620311982929707
0.509765982627869, 0.09375, 0.0673346966505051
0.502578973770142, 0.0996093973517418, 0.0620311982929707
0.503906011581421, 0.103559002280235, 0.0620311982929707
0.503906011581421, 0.0996093973517418, 0.0638283938169479
0.509765982627869, 0.103331997990608, 0.0620311982929707
0.509765982627869, 0.0996093973517418, 0.0644610077142715
0.510537981987, 0.10546900331974, 0.0620311982929707
0.509765982627869, 0.107822999358177, 0.0620311982929707
0.508373975753784, 0.11132799834013, 0.0620311982929707
0.509765982627869, 0.11132799834013, 0.0645118951797485
0.508969008922577, 0.1171879991889, 0.0620311982929707
0.503906011581421, 0.122832000255585, 0.0620311982929707
0.509765982627869, 0.1171879991889, 0.0632978975772858
0.474608987569809, 0.127601996064186, 0.0620311982929707
0.480468988418579, 0.128049999475479, 0.0620311982929707
0.48632800579071, 0.128787994384766, 0.0620311982929707
0.503306984901428, 0.12304700165987, 0.0620311982929707
0.49804699420929, 0.124479003250599, 0.0620311982929707
0.503906011581421, 0.12304700165987, 0.0631535053253174
0.471264004707336, 0.12890599668026, 0.0620311982929707
0.46875, 0.129648000001907, 0.0620311982929707
0.474608987569809, 0.12890599668026, 0.0669842064380646
0.480468988418579, 0.12890599668026, 0.0648511052131653
0.48709100484848, 0.12890599668026, 0.0620311982929707
0.48632800579071, 0.12890599668026, 0.0622680000960827
0.493863999843597, 0.12890599668026, 0.0620311982929707
0.492188006639481, 0.129989996552467, 0.0620311982929707
0.496948003768921, 0.09375, 0.0678905993700027
0.49804699420929, 0.0949247032403946, 0.0678905993700027
0.507547974586487, 0.09375, 0.0678905993700027
0.503906011581421, 0.0944683998823166, 0.0678905993700027
0.503906011581421, 0.09375, 0.0692856013774872
0.510028004646301, 0.09375, 0.0678905993700027
0.511424005031586, 0.0996093973517418, 0.0678905993700027
0.510276019573212, 0.10546900331974, 0.0678905993700027
0.512041985988617, 0.11132799834013, 0.0678905993700027
0.511234998703003, 0.1171879991889, 0.0678905993700027
0.509765982627869, 0.12016399949789, 0.0678905993700027
0.49804699420929, 0.128814995288849, 0.0678905993700027
0.505226016044617, 0.12304700165987, 0.0678905993700027
0.503906011581421, 0.123777002096176, 0.0678905993700027
0.509765982627869, 0.12304700165987, 0.0709719955921173
0.46875, 0.13127900660038, 0.0678905993700027
0.474608987569809, 0.12924200296402, 0.0678905993700027
0.480468988418579, 0.130229994654655, 0.0678905993700027
0.48632800579071, 0.131689995527267, 0.0678905993700027
0.497974008321762, 0.12890599668026, 0.0678905993700027
0.492188006639481, 0.131729006767273, 0.0678905993700027
0.49804699420929, 0.12890599668026, 0.0680859982967377
0.386718988418579, 0.0820311978459358, 0.0324314013123512
0.420316010713577, 0.00585938012227416, 0.0327344015240669
0.386718988418579, 0, 0.0493506006896496
0.39257800579071, 0, 0.0499772019684315
0.39852699637413, 0, 0.044453103095293
0.398438006639481, 0, 0.0448169969022274
0.40429699420929, 0.011718800291419, 0.0488166026771069
0.40429699420929, 0.0175781007856131, 0.0491832010447979
0.382726013660431, 0, 0.0503125004470348
0.380858987569809, 0, 0.050711702555418
0.386718988418579, 0.00213647005148232, 0.0503125004470348
0.39257800579071, 0.000610871007665992, 0.0503125004470348
0.398438006639481, 0.00200995011255145, 0.0503125004470348
0.40429699420929, 0.00553045002743602, 0.0503125004470348
0.380858987569809, 0.00585938012227416, 0.0513706021010876
0.386718988418579, 0.00585938012227416, 0.0524741001427174
0.404606997966766, 0.00585938012227416, 0.0503125004470348
0.40429699420929, 0.00657177018001676, 0.0503125004470348
0.410156011581421, 0.0106046004220843, 0.0503125004470348
0.380858987569809, 0.011718800291419, 0.0544199980795383
0.403041988611221, 0.011718800291419, 0.0503125004470348
0.408003985881805, 0.011718800291419, 0.0503125004470348
0.40429699420929, 0.011718800291419, 0.0524012036621571
0.406623989343643, 0.0175781007856131, 0.0503125004470348
0.40429699420929, 0.0187075007706881, 0.0503125004470348
0.427733987569809, 0.0175781007856131, 0.0506323017179966
0.375, 0.0878906026482582, 0.0542475990951061
0.39257800579071, 0.00377770001068711, 0.0561718977987766
0.398438006639481, 0.00315296999178827, 0.0561718977987766
0.40429699420929, 0.00449721980839968, 0.0561718977987766
0.375, 0.0113225998356938, 0.0561718977987766
0.390147000551224, 0.00585938012227416, 0.0561718977987766
0.386718988418579, 0.00944980978965759, 0.0561718977987766
0.39257800579071, 0.00585938012227416, 0.0594461001455784
0.398438006639481, 0.00585938012227416, 0.0590368025004864
0.40531200170517, 0.00585938012227416, 0.0561718977987766
0.40429699420929, 0.00585938012227416, 0.0576071031391621
0.410156011581421, 0.0110368002206087, 0.0561718977987766
0.375869989395142, 0.011718800291419, 0.0561718977987766
0.375, 0.011718800291419, 0.0569713972508907
0.383536010980606, 0.011718800291419, 0.0561718977987766
0.380858987569809, 0.0127649996429682, 0.0561718977987766
0.386718988418579, 0.011718800291419, 0.0585152022540569
0.40429699420929, 0.0157137997448444, 0.0561718977987766
0.40429699420929, 0.011718800291419, 0.0607645995914936
0.410156011581421, 0.011718800291419, 0.056834202259779
0.380858987569809, 0.0175781007856131, 0.0614523030817509
0.39257800579071, 0.0175781007856131, 0.0612342022359371
0.409090995788574, 0.0175781007856131, 0.0561718977987766
0.410156011581421, 0.0175781007856131, 0.056827899068594
0.426270008087158, 0.0175781007856131, 0.0561718977987766
0.421875, 0.0175781007856131, 0.0588358007371426
0.416016012430191, 0.0234375, 0.0611789040267468
0.398438006639481, 0.0101239997893572, 0.0620311982929707
0.375, 0.0134739996865392, 0.0620311982929707
0.396829009056091, 0.011718800291419, 0.0620311982929707
0.401950985193253, 0.011718800291419, 0.0620311982929707
0.398438006639481, 0.0150699000805616, 0.0620311982929707
0.398438006639481, 0.011718800291419, 0.0643395036458969
0.379900991916656, 0.0175781007856131, 0.0620311982929707
0.375, 0.0175781007856131, 0.0661969035863876
0.380858987569809, 0.0175781007856131, 0.064859002828598
0.39257800579071, 0.0175781007856131, 0.0676079988479614
0.398438006639481, 0.0192853007465601, 0.0620311982929707
0.40429699420929, 0.0220948997884989, 0.0620311982929707
0.375, 0.0262831002473831, 0.0620311982929707
0.389815002679825, 0.0234375, 0.0620311982929707
0.396719992160797, 0.0234375, 0.0620311982929707
0.39257800579071, 0.0234375, 0.0668957978487015
0.406446009874344, 0.0234375, 0.0620311982929707
0.40429699420929, 0.0264090001583099, 0.0620311982929707
0.40429699420929, 0.0234375, 0.065517395734787
0.375, 0.0330864004790783, 0.0620311982929707
0.389705985784531, 0.0292968992143869, 0.0620311982929707
0.40429699420929, 0.0299779009073973, 0.0620311982929707
0.375, 0.0351562015712261, 0.0647082030773163
0.375, 0.0410155989229679, 0.0664972960948944
0.380858987569809, 0.0169175993651152, 0.0678905993700027
0.39257800579071, 0.0174151994287968, 0.0678905993700027
0.378865987062454, 0.0175781007856131, 0.0678905993700027
0.375, 0.0219037998467684, 0.0678905993700027
0.375, 0.0175781007856131, 0.0734304040670395
0.383006006479263, 0.0175781007856131, 0.0678905993700027
0.380858987569809, 0.0175781007856131, 0.068818598985672
0.392356991767883, 0.0175781007856131, 0.0678905993700027
0.386718988418579, 0.0194840002804995, 0.0678905993700027
0.392650008201599, 0.0175781007856131, 0.0678905993700027
0.398438006639481, 0.0229896008968353, 0.0678905993700027
0.375, 0.024133799597621, 0.0678905993700027
0.39257800579071, 0.0243871994316578, 0.0678905993700027
0.400586992502213, 0.0234375, 0.0678905993700027
0.395422011613846, 0.0292968992143869, 0.0678905993700027
0.39257800579071, 0.0321410000324249, 0.0678905993700027
0.39257800579071, 0.0292968992143869, 0.0707346946001053
0.40361300110817, 0.0292968992143869, 0.0678905993700027
0.398438006639481, 0.0292968992143869, 0.0708398073911667
0.40429699420929, 0.0292968992143869, 0.069375604391098
0.379202991724014, 0.0351562015712261, 0.0678905993700027
0.376305997371674, 0.0410155989229679, 0.0678905993700027
0.375, 0.0426238998770714, 0.0678905993700027
0.28125, -0.0717364996671677, 0.167500004172325
0.287108987569809, -0.070585198700428, 0.167500004172325
0.292968988418579, -0.071188397705555, 0.167500004172325
0.339843988418579, -0.070354700088501, 0.167500004172325
0.295233994722366, -0.0703125, 0.167500004172325
0.292968988418579, -0.0703125, 0.169858008623123
0.29882800579071, -0.0690888017416, 0.167500004172325
0.304688006639481, -0.0694067999720573, 0.167500004172325
0.31054699420929, -0.0701398998498917, 0.167500004172325
0.316406011581421, -0.0692244023084641, 0.167500004172325
0.322266012430191, -0.0692775025963783, 0.167500004172325
0.328125, -0.0698127970099449, 0.167500004172325
0.339632987976074, -0.0703125, 0.167500004172325
0.333983987569809, -0.0691289007663727, 0.167500004172325
0.339942008256912, -0.0703125, 0.167500004172325
0.339843988418579, -0.0703125, 0.167637005448341
0.34570300579071, -0.0676577985286713, 0.167500004172325
0.351561993360519, -0.0663644969463348, 0.167500004172325
0.354790985584259, -0.0644531026482582, 0.167500004172325
0.35742199420929, -0.0608080998063087, 0.167500004172325
0.358756989240646, -0.0585937984287739, 0.167500004172325
0.361166000366211, -0.0527344010770321, 0.167500004172325
0.361791998147964, -0.046875, 0.167500004172325
0.360576003789902, -0.0410155989229679, 0.167500004172325
0.36149200797081, -0.0351562015712261, 0.167500004172325
0.360403001308441, -0.0292968992143869, 0.167500004172325
0.360931992530823, -0.0234375, 0.167500004172325
0.362033009529114, -0.0175781007856131, 0.167500004172325
0.363281011581421, -0.0161214005202055, 0.167500004172325
0.367298990488052, -0.011718800291419, 0.167500004172325
0.369141012430191, -0.00796432979404926, 0.167500004172325
0.28125, -0.0730039030313492, 0.173359006643295
0.287108987569809, -0.0735116004943848, 0.173359006643295
0.291745990514755, -0.0703125, 0.173359006643295
0.292968988418579, -0.0691903010010719, 0.173359006643295
0.29882800579071, -0.0696121007204056, 0.173359006643295
0.304688006639481, -0.0677831023931503, 0.173359006643295
0.31054699420929, -0.06874780356884, 0.173359006643295
0.316406011581421, -0.0679123029112816, 0.173359006643295
0.322266012430191, -0.0684377029538155, 0.173359006643295
0.328125, -0.0687045007944107, 0.173359006643295
0.333983987569809, -0.0690319985151291, 0.173359006643295
0.339843988418579, -0.0676158964633942, 0.173359006643295
0.34570300579071, -0.0687028020620346, 0.173359006643295
0.351561993360519, -0.0658017992973328, 0.173359006643295
0.353165000677109, -0.0644531026482582, 0.173359006643295
0.35742199420929, -0.0597603991627693, 0.173359006643295
0.359522998332977, -0.0585937984287739, 0.173359006643295
0.361214995384216, -0.0527344010770321, 0.173359006643295
0.361705005168915, -0.046875, 0.173359006643295
0.361268013715744, -0.0410155989229679, 0.173359006643295
0.361250996589661, -0.0351562015712261, 0.173359006643295
0.360720992088318, -0.0292968992143869, 0.173359006643295
0.361039012670517, -0.0234375, 0.173359006643295
0.362850993871689, -0.0175781007856131, 0.173359006643295
0.363281011581421, -0.0169453993439674, 0.173359006643295
0.366382002830505, -0.011718800291419, 0.173359006643295
0.369141012430191, -0.00924963038414717, 0.173359006643295
0.373214989900589, -0.00585938012227416, 0.173359006643295
0.28125, -0.0721089988946915, 0.179219007492065
0.287108987569809, -0.0719489008188248, 0.179219007492065
0.28125, -0.0703125, 0.184254005551338
0.291893005371094, -0.0703125, 0.179219007492065
0.292968988418579, -0.0697448030114174, 0.179219007492065
0.292968988418579, -0.0703125, 0.180508002638817
0.29882800579071, -0.0694437995553017, 0.179219007492065
0.304688006639481, -0.0673988983035088, 0.179219007492065
0.31054699420929, -0.0666059032082558, 0.179219007492065
0.316406011581421, -0.0664684996008873, 0.179219007492065
0.322266012430191, -0.0668701007962227, 0.179219007492065
0.328125, -0.0669006034731865, 0.179219007492065
0.333983987569809, -0.0669950023293495, 0.179219007492065
0.339843988418579, -0.0670017972588539, 0.179219007492065
0.34570300579071, -0.0677928030490875, 0.179219007492065
0.351561993360519, -0.0660590007901192, 0.179219007492065
0.316406011581421, -0.0644531026482582, 0.185019001364708
0.354332000017166, -0.0644531026482582, 0.179219007492065
0.35742199420929, -0.0597639009356499, 0.179219007492065
0.358626008033752, -0.0585937984287739, 0.179219007492065
0.360980004072189, -0.0527344010770321, 0.179219007492065
0.362026989459991, -0.046875, 0.179219007492065
0.362336993217468, -0.0410155989229679, 0.179219007492065
0.361328989267349, -0.0351562015712261, 0.179219007492065
0.359452992677689, -0.0292968992143869, 0.179219007492065
0.360610991716385, -0.0234375, 0.179219007492065
0.36285999417305, -0.0175781007856131, 0.179219007492065
0.363281011581421, -0.016881300136447, 0.179219007492065
0.365552008152008, -0.011718800291419, 0.179219007492065
0.369141012430191, -0.00928191002458334, 0.179219007492065
0.369141012430191, -0.011718800291419, 0.182467997074127
0.287108987569809, -0.0710681974887848, 0.185078009963036
0.292968988418579, -0.0718585029244423, 0.185078009963036
0.282974988222122, -0.0703125, 0.185078009963036
